ply
format ascii 1.0
element vertex 1830
property float32 x
property float32 y
property float32 z
end_header
-33.5633 10.6295 -13.9642
-33.5694 9.4215 -13.1213
-33.4662 8.2200 -12.2717
-34.1800 7.2275 -11.7376
-42.3538 7.5404 -13.5922
-35.9092 5.2158 -10.7423
-45.4002 5.1299 -12.6220
-7.4193 0.3687 -1.7611
-7.5210 0.1388 -1.6376
-6.3732 -0.0803 -1.2649
-6.6565 -0.2901 -1.1951
-7.7197 -0.5755 -1.2419
-7.6711 -0.8101 -1.0926
-7.6238 -1.0430 -0.9466
-7.0494 -1.1861 -0.7474
-6.8553 -1.3713 -0.6030
-7.1549 -1.6615 -0.5003
-7.0122 -1.8576 -0.3638
-6.7649 -2.0172 -0.2286
-6.7663 -2.2477 -0.1054
-6.3082 -2.3150 0.0177
-6.6029 -2.6591 0.1413
-6.7600 -2.9711 0.2721
-21.5322 -10.2818 1.2802
-21.5311 -11.1287 1.7021
-21.5379 -12.0130 2.1351
-21.5376 -12.9309 2.5794
-21.5373 -13.8908 3.0376
-21.5343 -14.8964 3.5114
-21.5366 -15.9593 4.0047
-21.5389 -17.0834 4.5194
-21.5344 -18.2712 5.0572
-21.5237 -19.5316 5.6214
-21.1920 -20.5693 6.1251
-19.6925 -20.4529 6.2750
-17.9197 -19.9298 6.2775
-16.3317 -19.4708 6.2775
-14.9019 -19.0719 6.2775
-13.6032 -18.7234 6.2775
-12.4142 -18.4178 6.2775
-11.3174 -18.1490 6.2775
-10.2989 -17.9122 6.2775
-9.1200 -17.2736 6.1251
-8.2466 -17.0940 6.1251
-7.4206 -16.9360 6.1251
-6.6353 -16.7973 6.1251
-5.8848 -16.6762 6.1251
-5.2923 -16.9835 6.2775
-4.5791 -16.8912 6.2775
-3.8874 -16.8130 6.2775
-3.2136 -16.7482 6.2775
-2.5542 -16.6960 6.2775
-1.9060 -16.6560 6.2775
-1.2661 -16.6277 6.2775
-0.6317 -16.6107 6.2775
-33.3195 9.7816 -12.2994
-33.8713 8.7502 -11.6951
-33.5307 7.5108 -10.8065
-35.1704 6.6974 -10.5531
-35.2490 5.5520 -9.8172
-42.5487 5.3246 -10.9591
-43.3486 4.0410 -10.2805
-7.4629 0.2266 -1.4753
-7.5657 -0.0056 -1.3505
-6.5334 -0.2074 -1.0428
-6.8317 -0.4286 -0.9631
-6.0217 -0.5647 -0.7379
-7.5444 -0.9429 -0.7865
-7.4990 -1.1728 -0.6453
-7.0436 -1.3251 -0.4783
-7.0988 -1.5635 -0.3533
-6.8667 -1.7363 -0.2170
-6.8071 -1.9472 -0.0908
-7.1136 -2.2758 0.0361
-6.5033 -2.3060 0.1539
-6.6722 -2.6033 0.2836
-6.8131 -2.9078 0.4201
-6.5883 -3.0609 0.5349
-21.5308 -10.8458 2.1780
-21.5370 -11.7245 2.6198
-21.5367 -12.6365 3.0739
-21.5363 -13.5899 3.5429
-21.5336 -14.5886 4.0288
-21.5358 -15.6434 4.5353
-21.5381 -16.7587 5.0649
-21.5348 -17.9377 5.6192
-21.2593 -18.9515 6.1251
-19.6985 -18.7936 6.2426
-18.0613 -18.4484 6.2775
-16.5024 -18.0586 6.2775
-7.4109 -8.6971 3.0811
-13.8235 -17.4219 6.2775
-12.6563 -17.1605 6.2775
-11.5802 -16.9301 6.2775
-10.5815 -16.7264 6.2775
-9.6488 -16.5462 6.2775
-8.5596 -15.9888 6.1251
-7.7522 -15.8511 6.1251
-6.9856 -15.7296 6.1251
-6.2540 -15.6227 6.1251
-5.6907 -15.9155 6.2775
-4.9981 -15.8322 6.2775
-4.3280 -15.7606 6.2775
-3.6768 -15.6999 6.2775
-3.0412 -15.6494 6.2775
-2.4182 -15.6088 6.2775
-1.8052 -15.5776 6.2775
-1.1994 -15.5555 6.2775
-0.5985 -15.5423 6.2775
-33.1885 11.3792 -12.3462
-33.4531 10.2497 -11.6266
-31.6158 8.5668 -10.2441
-33.7873 7.9892 -10.1805
-32.9310 6.6762 -9.1988
-33.1569 5.6262 -8.5548
-41.9322 5.7532 -9.9487
-42.8437 4.5067 -9.2975
-7.4060 0.3125 -1.3166
-7.5075 0.0829 -1.1912
-6.4155 -0.1283 -0.8971
-6.7031 -0.3419 -0.8126
-7.5122 -0.6164 -0.7721
-7.4665 -0.8454 -0.6306
-7.4218 -1.0733 -0.4914
-7.2449 -1.2772 -0.3477
-7.0445 -1.4678 -0.2096
-7.3485 -1.7702 -0.0841
-6.8496 -1.8767 0.0478
-7.0738 -2.1769 0.1809
-7.0333 -2.4074 0.3122
-5.9669 -2.2538 0.3788
-6.8669 -2.8440 0.5695
-6.6392 -2.9994 0.6824
-21.5305 -10.5650 2.6506
-21.5293 -11.4344 3.1002
-21.5357 -12.3442 3.5649
-21.5353 -13.2912 4.0447
-21.5350 -14.2842 4.5429
-21.5351 -15.3298 5.0623
-21.5373 -16.4362 5.6066
-21.3529 -17.4574 6.1251
-19.7055 -17.2532 6.2046
-18.2173 -17.0808 6.2775
-16.6827 -16.7556 6.2775
-15.3006 -16.4718 6.2775
-14.0453 -16.2230 6.2775
-12.8966 -16.0036 6.2775
-11.8379 -15.8098 6.2775
-10.8560 -15.6380 6.2775
-9.9396 -15.4855 6.2775
-8.8591 -14.9774 6.1251
-8.0674 -14.8601 6.1251
-7.3166 -14.7560 6.1251
-6.6012 -14.6638 6.1251
-5.9163 -14.5826 6.1251
-5.3885 -14.8724 6.2775
-4.7367 -14.8088 6.2775
-4.1045 -14.7541 6.2775
-3.4890 -14.7077 6.2775
-2.8873 -14.6691 6.2775
-2.2968 -14.6379 6.2775
-1.7151 -14.6140 6.2775
-1.1398 -14.5970 6.2775
-0.5688 -14.5869 6.2775
-33.2321 11.8248 -11.6372
-33.7327 10.7653 -10.9998
-31.7247 8.9946 -9.6088
-32.8217 8.1674 -9.2052
-33.1300 7.1219 -8.5720
-41.5740 7.5577 -9.8793
-41.7988 6.2362 -9.0732
-42.3533 4.9590 -8.3427
-7.4505 0.1695 -1.0353
-7.4817 -0.0622 -0.8991
-6.5799 -0.2588 -0.6684
-6.7974 -0.4784 -0.5652
-6.4104 -0.6510 -0.4154
-7.3466 -0.9764 -0.3416
-7.4823 -1.2311 -0.2110
-7.4734 -1.4688 -0.0737
-7.3338 -1.6794 0.0629
-6.8923 -1.8057 0.1872
-7.0518 -2.0848 0.3240
-7.2042 -2.3777 0.4682
-6.1409 -2.2434 0.5179
-6.9214 -2.7797 0.7203
-6.6905 -2.9373 0.8312
-21.5302 -10.2857 3.1204
-21.5290 -11.1500 3.5786
-21.5348 -12.0536 4.0530
-21.5344 -12.9942 4.5435
-21.5340 -13.9801 5.0536
-21.5343 -15.0179 5.5862
-21.4666 -16.0633 6.1251
-19.7133 -15.8153 6.1627
-18.3841 -15.8058 6.2775
-16.8699 -15.5417 6.2775
-15.5060 -15.3108 6.2775
-14.2676 -15.1080 6.2775
-13.1344 -14.9290 6.2775
-12.0906 -14.7705 6.2775
-11.1229 -14.6296 6.2775
-10.2205 -14.5043 6.2775
-9.1467 -14.0433 6.1251
-8.3684 -13.9462 6.1251
-7.6311 -13.8597 6.1251
-6.9295 -13.7828 6.1251
-6.2588 -13.7145 6.1251
-5.7508 -13.9848 6.2734
-5.1183 -13.9397 6.2775
-4.5025 -13.8924 6.2775
-3.9041 -13.8516 6.2775
-3.3205 -13.8169 6.2775
-2.7491 -13.7880 6.2775
-2.1876 -13.7648 6.2775
-1.6340 -13.7468 6.2775
-1.0862 -13.7341 6.2775
-0.5421 -13.7265 6.2775
-35.1984 15.7146 -13.3369
-38.9960 15.8667 -13.7714
-33.7041 12.4275 -11.0705
-34.1941 11.3464 -10.4200
-31.8338 9.4233 -8.9722
-32.5365 8.4974 -8.4500
-32.9222 7.4781 -7.8433
-35.2098 6.8249 -7.6528
-36.9945 5.9609 -7.2870
-42.4178 5.4688 -7.5099
-8.0229 0.2760 -0.9574
-7.3674 0.0244 -0.7412
-6.4474 -0.1788 -0.5289
-6.6404 -0.3903 -0.4223
-6.8464 -0.6157 -0.3096
-6.4313 -0.7798 -0.1729
-7.3671 -1.1260 -0.0626
-7.5379 -1.3928 0.0750
-7.3192 -1.5894 0.2087
-6.9354 -1.7342 0.3277
-7.0300 -1.9937 0.4656
-7.3101 -2.3237 0.6249
-6.3245 -2.2326 0.6646
-6.6211 -2.5764 0.8283
-6.7426 -2.8746 0.9817
-21.5299 -10.0079 3.5879
-21.5287 -10.8670 4.0548
-21.5338 -11.7644 4.5388
-21.5334 -12.6986 5.0399
-21.5330 -13.6775 5.5618
-21.5336 -14.7077 6.1075
-19.7441 -14.4824 6.1251
-18.5585 -14.6062 6.2775
-17.0616 -14.4005 6.2775
-15.7133 -14.2205 6.2775
-14.4891 -14.0621 6.2775
-13.3693 -13.9221 6.2775
-12.3381 -13.7978 6.2775
-11.3827 -13.6873 6.2775
-10.4922 -13.5887 6.2775
-9.6579 -13.5006 6.2775
-8.6567 -13.0961 6.1251
-7.9311 -13.0274 6.1251
-7.2414 -12.9661 6.1251
-6.5829 -12.9114 6.1251
-5.9516 -12.8628 6.1251
-5.4769 -13.1387 6.2775
-4.8751 -13.0999 6.2775
-4.2914 -13.0661 6.2775
-3.7232 -13.0368 6.2775
-3.1681 -13.0119 6.2775
-2.6240 -12.9912 6.2775
-2.0888 -12.9745 6.2775
-1.5606 -12.9616 6.2775
-1.0376 -12.9524 6.2775
-0.5179 -12.9470 6.2775
-34.7295 15.9690 -12.3786
-31.9941 11.0207 -9.0689
-31.9433 9.8533 -8.3336
-34.3744 9.3995 -8.2167
-32.9672 7.8882 -7.1807
-34.2014 7.0399 -6.7427
-34.5928 5.9852 -6.1215
-42.9589 6.0452 -6.7526
-21.5449 1.6656 -2.5564
-21.3113 0.9807 -2.1266
-7.2395 0.1078 -0.5872
-7.6328 -0.1234 -0.4776
-7.6837 -0.3628 -0.3391
-6.6875 -0.5239 -0.1721
-6.3471 -0.6959 -0.0465
-7.1238 -1.0057 0.0792
-7.3681 -1.2751 0.2186
-7.3047 -1.5001 0.3533
-6.9788 -1.6621 0.4695
-7.0086 -1.9035 0.6058
-7.2629 -2.2206 0.7692
-6.5192 -2.2213 0.8199
-6.6325 -2.4983 0.9687
-6.7954 -2.8113 1.1340
-6.7231 -3.0388 1.2658
-21.5284 -10.5851 4.5291
-21.5272 -11.4734 5.0213
-21.5325 -12.4042 5.5343
-21.5320 -13.3761 6.0679
-19.9025 -13.3084 6.1251
-18.7376 -13.4682 6.2775
-17.2555 -13.3189 6.2775
-15.9206 -13.1881 6.2775
-14.7087 -13.0730 6.2775
-13.6005 -12.9710 6.2775
-12.5803 -12.8804 6.2775
-11.6354 -12.7996 6.2775
-7.3792 -8.7323 4.3070
-9.9313 -12.6628 6.2775
-8.9335 -12.2989 6.1251
-8.2181 -12.2482 6.1251
-7.5387 -12.2029 6.1251
-6.8908 -12.1622 6.1251
-6.2705 -12.1259 6.1251
-5.7600 -12.2766 6.2178
-5.2257 -12.3651 6.2775
-4.6547 -12.3392 6.2775
-4.0998 -12.3165 6.2775
-3.5589 -12.2969 6.2775
-3.0297 -12.2803 6.2775
-2.5103 -12.2664 6.2775
-1.9989 -12.2551 6.2775
-1.4937 -12.2465 6.2775
-0.9933 -12.2403 6.2775
-0.4959 -12.2367 6.2775
-35.1653 16.6375 -11.7456
-39.2603 17.0004 -12.1370
-36.6025 14.4356 -10.4410
-44.3521 15.8364 -11.6308
-33.8166 10.8509 -8.1157
-34.7601 9.9306 -7.5924
-33.5972 8.4454 -6.6338
-34.2530 7.4604 -6.0627
-34.1198 6.3079 -5.3567
-41.6314 6.3481 -5.7195
-21.2583 1.8906 -2.1064
-6.9210 0.3986 -0.5557
-7.1173 0.1881 -0.4389
-7.3245 -0.0339 -0.3161
-7.6453 -0.2728 -0.1889
-7.6216 -0.5091 -0.0479
-7.5980 -0.7451 0.0924
-6.4586 -0.8368 0.1982
-7.1825 -1.1591 0.3544
-7.4680 -1.4457 0.5091
-7.0227 -1.5893 0.6126
-6.9874 -1.8141 0.7447
-7.2165 -2.1191 0.9112
-6.9037 -2.2677 1.0105
-7.0496 -2.5678 1.1770
-6.8116 -2.7322 1.2812
-6.7712 -2.9737 1.4210
-21.5281 -10.3040 5.0020
-21.5269 -11.1866 5.5038
-21.5315 -12.1107 6.0273
-20.0649 -12.1851 6.1251
-18.9187 -12.3799 6.2775
-17.4496 -12.2860 6.2775
-16.1264 -12.2034 6.2775
-14.9253 -12.1305 6.2775
-13.8272 -12.0660 6.2775
-12.8166 -12.0085 6.2775
-11.8811 -11.9572 6.2775
-11.0101 -11.9113 6.2775
-7.4700 -8.6974 4.5996
-9.1997 -11.5460 6.1251
-8.4932 -11.5134 6.1251
-7.8229 -11.4842 6.1251
-7.1843 -11.4580 6.1251
-6.5735 -11.4345 6.1251
-5.9871 -11.4135 6.1251
-5.5570 -11.6782 6.2775
-4.9971 -11.6611 6.2775
-4.4539 -11.6461 6.2775
-3.9252 -11.6328 6.2775
-3.4089 -11.6214 6.2775
-2.9032 -11.6117 6.2775
-2.4063 -11.6036 6.2775
-1.9166 -11.5970 6.2775
-1.4325 -11.5919 6.2775
-0.7927 -9.6415 5.2229
-0.3621 -8.8202 4.7789
-36.1639 17.5906 -11.2699
-36.1543 16.1264 -10.3838
-35.8757 14.6079 -9.4611
-33.9879 12.5633 -8.1931
-33.3784 11.1239 -7.3142
-34.2730 10.2103 -6.7807
-33.7872 8.9011 -5.9844
-41.6653 9.5725 -6.5367
-44.2468 8.7037 -6.0650
-21.1782 3.4780 -2.4909
-21.2051 2.8032 -2.0879
-21.2438 2.1358 -1.6900
-21.2823 1.4717 -1.2947
-6.9994 0.2657 -0.2958
-7.1999 0.0496 -0.1712
-7.4545 -0.1801 -0.0397
-7.5691 -0.4183 0.0993
-7.5457 -0.6527 0.2386
-7.5224 -0.8873 0.3778
-6.5770 -0.9846 0.4537
-7.2437 -1.3173 0.6370
-7.4208 -1.5916 0.7952
-6.9664 -1.7254 0.8826
-7.1905 -2.0247 1.0541
-6.9137 -2.1865 1.1542
-6.1439 -2.1618 1.1539
-6.8042 -2.6436 1.4239
-6.8199 -2.9079 1.5780
-21.5278 -10.0234 5.4741
-21.5266 -10.9003 5.9854
-20.2283 -11.1029 6.1251
-19.0993 -11.3329 6.2775
-17.6418 -11.2930 6.2775
-16.3292 -11.2577 6.2775
-15.1377 -11.2266 6.2775
-14.0486 -11.1990 6.2775
-13.0466 -11.1744 6.2775
-12.1194 -11.1524 6.2775
-11.2565 -11.1327 6.2775
-10.4495 -11.1149 6.2775
-9.6911 -11.0990 6.2775
-8.7572 -10.8155 6.1251
-8.0949 -10.8029 6.1251
-7.4646 -10.7915 6.1251
-6.8622 -10.7813 6.1251
-6.2846 -10.7721 6.1251
-5.7684 -10.8384 6.1675
-5.3211 -11.0240 6.2775
-4.7880 -11.0173 6.2775
-4.2700 -11.0114 6.2775
-3.7650 -11.0061 6.2775
-3.2712 -11.0016 6.2775
-2.7870 -10.9977 6.2775
-2.3107 -10.9945 6.2775
-1.8409 -10.9919 6.2775
-1.3763 -10.9899 6.2775
-0.6971 -8.3682 4.7806
-0.3481 -8.3676 4.7806
-35.0553 17.5170 -10.1406
-33.9229 15.5727 -8.9994
-35.4309 12.2465 -7.0254
-34.0786 10.5686 -6.0416
-33.2721 9.1668 -5.2173
-34.6701 8.3792 -4.7425
-21.1220 4.4047 -2.4747
-21.1627 3.7237 -2.0711
-21.1906 3.0483 -1.6707
-21.2294 2.3804 -1.2745
-21.2679 1.7163 -0.8803
-6.8858 0.3407 -0.1574
-7.0795 0.1302 -0.0312
-7.2845 -0.0922 0.1023
-7.5172 -0.3289 0.2444
-7.4940 -0.5617 0.3827
-7.4707 -0.7946 0.5210
-6.7466 -0.9314 0.5978
-6.7022 -1.1402 0.7218
-7.4115 -1.5019 0.9418
-7.6385 -1.8007 1.1212
-7.2012 -1.9408 1.2020
-6.9236 -2.1051 1.2983
-6.3290 -2.1486 1.3206
-6.7969 -2.5553 1.5662
-6.8692 -2.8411 1.7373
-21.5275 -9.7430 5.9459
-20.3895 -10.0538 6.1251
-19.2769 -10.3190 6.2775
-17.8302 -10.3323 6.2775
-16.5272 -10.3439 6.2775
-15.3446 -10.3541 6.2775
-14.2638 -10.3632 6.2775
-13.2697 -10.3713 6.2775
-12.3500 -10.3786 6.2775
-11.4945 -10.3851 6.2775
-10.6948 -10.3910 6.2775
-9.9436 -10.3963 6.2775
-9.0107 -10.1485 6.1251
-8.3556 -10.1527 6.1251
-7.7326 -10.1565 6.1251
-7.1379 -10.1599 6.1251
-6.5680 -10.1630 6.1251
-6.0202 -10.1658 6.1251
-5.6285 -10.4212 6.2775
-5.1045 -10.4236 6.2775
-4.5959 -10.4256 6.2775
-4.1009 -10.4274 6.2775
-3.6176 -10.4290 6.2775
-3.1444 -10.4303 6.2775
-2.6798 -10.4315 6.2775
-2.2225 -10.4324 6.2775
-1.7710 -10.4332 6.2775
-1.3243 -10.4338 6.2775
-0.6711 -7.9488 4.7822
-0.3351 -7.9491 4.7823
-34.5595 17.7283 -9.2243
-35.5384 16.7770 -8.6489
-38.1745 16.5198 -8.4241
-36.8911 14.5639 -7.3313
-38.1487 13.6583 -6.7690
-33.0375 10.6493 -5.1775
-34.5687 9.9412 -4.7182
-21.0651 5.3426 -2.4580
-21.1064 4.6511 -2.0526
-21.1472 3.9691 -1.6518
-21.1762 3.2931 -1.2539
-21.2150 2.6249 -0.8594
-21.2535 1.9607 -0.4664
-7.7093 0.4703 -0.0267
-6.9634 0.2082 0.1042
-7.1613 -0.0083 0.2393
-7.3711 -0.2376 0.3826
-7.4428 -0.4719 0.5248
-7.4196 -0.7031 0.6623
-7.3963 -0.9349 0.8005
-7.3727 -1.1677 0.9396
-6.8339 -1.3041 1.0045
-7.5806 -1.6966 1.2651
-7.2118 -1.8566 1.3503
-6.9336 -2.0234 1.4427
-6.3907 -2.0904 1.4667
-6.7895 -2.4672 1.7082
-6.9193 -2.7733 1.8989
-6.6895 -2.9404 1.9943
-19.4489 -9.3314 6.2775
-18.0126 -9.3977 6.2775
-16.7190 -9.4559 6.2775
-15.5448 -9.5074 6.2775
-14.4719 -9.5531 6.2775
-13.4852 -9.5939 6.2775
-12.5725 -9.6305 6.2775
-11.7239 -9.6634 6.2775
-10.9308 -9.6930 6.2775
-10.1863 -9.7197 6.2775
-9.4843 -9.7438 6.2775
-8.6055 -9.5286 6.1251
-7.9892 -9.5479 6.1251
-7.4013 -9.5654 6.1251
-6.8385 -9.5812 6.1251
-6.2979 -9.5955 6.1251
-5.7771 -9.6084 6.1251
-5.4049 -9.8593 6.2775
-4.9048 -9.8699 6.2775
-4.4186 -9.8794 6.2775
-3.9446 -9.8878 6.2775
-3.4812 -9.8952 6.2775
-3.0270 -9.9016 6.2775
-2.5806 -9.9070 6.2775
-2.1407 -9.9116 6.2775
-1.7063 -9.9152 6.2775
-1.2761 -9.9181 6.2775
-0.6470 -7.5596 4.7837
-0.3231 -7.5605 4.7838
-23.1850 12.2018 -5.6691
-35.5897 17.2653 -7.8801
-36.2201 16.1377 -7.2122
-35.4836 14.4549 -6.2995
-37.0649 13.7299 -5.8029
-21.3330 7.1374 -2.9039
-21.0073 6.2951 -2.4399
-21.0494 5.5903 -2.0326
-21.0909 4.8974 -1.6305
-21.1317 4.2145 -1.2325
-21.1720 3.5396 -0.8376
-21.2006 2.8692 -0.4444
-21.2391 2.2050 -0.0525
-7.6831 0.5573 0.1226
-7.5129 0.3111 0.2582
-7.0424 0.0730 0.3719
-7.2448 -0.1499 0.5168
-7.6977 -0.3990 0.6927
-7.7531 -0.6447 0.8437
-7.6829 -0.8814 0.9825
-6.3184 -0.9265 0.9303
-7.5431 -1.3500 1.2591
-6.9712 -1.4768 1.3037
-7.2225 -1.7721 1.4992
-6.9436 -1.9414 1.5878
-6.4022 -2.0148 1.6030
-6.7822 -2.3791 1.8501
-6.9702 -2.7045 2.0631
-6.7379 -2.8739 2.1566
-18.1871 -8.4842 6.2775
-16.9027 -8.5889 6.2775
-15.7369 -8.6815 6.2775
-14.6716 -8.7639 6.2775
-13.6921 -8.8375 6.2775
-12.7863 -8.9035 6.2775
-11.9442 -8.9628 6.2775
-11.1575 -9.0164 6.2775
-10.4192 -9.0648 6.2775
-9.7234 -9.1086 6.2775
-8.8450 -8.9262 6.1251
-8.2348 -8.9613 6.1251
-7.3993 -8.6949 5.9219
-7.0968 -9.0222 6.1251
-6.5629 -9.0484 6.1251
-6.0489 -9.0721 6.1251
-5.6907 -9.3198 6.2775
-5.1982 -9.3396 6.2775
-4.7199 -9.3574 6.2775
-4.2543 -9.3728 6.2775
-3.7996 -9.3872 6.2775
-3.3545 -9.3996 6.2775
-2.9179 -9.4103 6.2775
-2.4883 -9.4194 6.2775
-2.0647 -9.4271 6.2775
-1.6460 -9.4332 6.2775
-1.2312 -9.4380 6.2775
-0.6245 -7.1969 4.7852
-0.3119 -7.1984 4.7852
-33.5804 18.1203 -7.4572
-34.5177 17.1963 -6.8834
-35.5836 16.3107 -6.3169
-35.6941 14.9911 -5.5786
-20.9381 7.2620 -2.4180
-20.9812 6.5414 -2.0090
-21.0338 5.8381 -1.6067
-21.0753 5.1440 -1.2081
-21.1162 4.4601 -0.8129
-21.1566 3.7845 -0.4203
-21.1861 3.1139 -0.0289
-21.2247 2.4496 0.3618
-7.3054 0.6144 0.2588
-7.4248 0.3932 0.3995
-6.9271 0.1518 0.5005
-7.1227 -0.0650 0.6467
-7.3267 -0.2949 0.8023
-7.4058 -0.5296 0.9510
-7.6020 -0.7832 1.1219
-7.5329 -1.0159 1.2584
-6.6069 -1.1041 1.2349
-7.5340 -1.5058 1.5610
-7.2333 -1.6871 1.6490
-7.0218 -1.8772 1.7506
-6.4137 -1.9387 1.7401
-7.4113 -2.5063 2.1791
-7.0220 -2.6345 2.2301
-6.7872 -2.8062 2.3217
-17.0767 -7.7386 6.2775
-15.9195 -7.8724 6.2775
-14.8620 -7.9915 6.2775
-13.8896 -8.0980 6.2775
-12.9906 -8.1936 6.2775
-12.1549 -8.2797 6.2775
-11.3744 -8.3574 6.2775
-10.6422 -8.4277 6.2775
-9.9523 -8.4915 6.2775
-9.0741 -8.3418 6.1251
-8.4697 -8.3931 6.1251
-7.8939 -8.4398 6.1251
-7.3435 -8.4822 6.1251
-6.8157 -8.5208 6.1251
-6.3080 -8.5558 6.1251
-5.8183 -8.5875 6.1251
-5.4774 -8.8306 6.2775
-5.0063 -8.8572 6.2775
-4.5481 -8.8810 6.2775
-4.1013 -8.9023 6.2775
-3.6646 -8.9212 6.2775
-3.2366 -8.9378 6.2775
-2.8161 -8.9522 6.2775
-2.4022 -8.9645 6.2775
-1.9937 -8.9748 6.2775
-1.5897 -8.9831 6.2775
-1.1893 -8.9896 6.2775
-0.6034 -6.8578 4.7865
-0.3014 -6.8599 4.7865
-36.8624 20.3844 -7.3560
-38.6345 19.7537 -6.8515
-37.6038 17.7207 -5.8605
-21.2620 9.1989 -2.8699
-20.8786 8.2538 -2.3936
-20.9229 7.5141 -1.9829
-20.9661 6.7915 -1.5787
-21.0181 6.0865 -1.1801
-21.0597 5.3910 -0.7849
-21.1006 4.7062 -0.3926
-21.1411 4.0299 -0.0021
-21.1717 3.3589 0.3873
-21.2102 2.6946 0.7769
-7.2217 0.6911 0.3968
-7.3385 0.4737 0.5380
-7.4585 0.2498 0.6843
-7.0042 0.0173 0.7728
-7.1654 -0.2050 0.9249
-7.2404 -0.4332 1.0721
-7.3168 -0.6679 1.2244
-7.3948 -0.9099 1.3825
-7.3859 -1.1463 1.5286
-6.9225 -1.3004 1.5744
-7.2441 -1.6016 1.7996
-7.0356 -1.7943 1.8998
-6.4254 -1.8621 1.8781
-7.5448 -2.4559 2.3792
-7.0747 -2.5632 2.4001
-6.8373 -2.7373 2.4898
-16.0910 -7.0767 6.2775
-15.0416 -7.2327 6.2775
-14.0768 -7.3723 6.2775
-13.1846 -7.4977 6.2775
-12.3554 -7.6107 6.2775
-11.5811 -7.7128 6.2775
-10.8549 -7.8053 6.2775
-10.1709 -7.8893 6.2775
-9.5241 -7.9657 6.2775
-8.6941 -7.8401 6.1251
-8.1239 -7.9019 6.1251
-7.5792 -7.9582 6.1251
-7.0571 -8.0094 6.1251
-6.5553 -8.0561 6.1251
-6.0715 -8.0986 6.1251
-5.7433 -8.3396 6.2775
-5.2789 -8.3754 6.2775
-4.8275 -8.4076 6.2775
-4.3879 -8.4367 6.2775
-3.9586 -8.4626 6.2775
-3.5384 -8.4857 6.2775
-3.1262 -8.5059 6.2775
-2.7210 -8.5236 6.2775
-2.3216 -8.5386 6.2775
-1.9273 -8.5512 6.2775
-1.5370 -8.5615 6.2775
-1.1500 -8.5693 6.2775
-0.5837 -6.5399 4.7877
-0.2916 -6.5424 4.7877
-36.6139 19.2027 -5.6815
-21.2153 10.2719 -2.8446
-20.8176 9.2714 -2.3643
-20.8632 8.5090 -1.9520
-20.9076 7.7669 -1.5466
-20.9510 7.0422 -1.1471
-21.0023 6.3355 -0.7523
-21.0440 5.6387 -0.3605
-21.0850 4.9529 0.0290
-21.1255 4.2760 0.4171
-21.1656 3.6062 0.8051
-21.1958 2.9404 1.1932
-21.2341 2.2795 1.5833
-7.2538 0.5526 0.6739
-7.3522 0.3318 0.8186
-7.4511 0.1052 0.9682
-7.0103 -0.1187 1.0428
-7.0815 -0.3407 1.1884
-7.1537 -0.5687 1.3391
-7.2271 -0.8035 1.4955
-7.3021 -1.0459 1.6583
-7.3787 -1.2970 1.8281
-7.2550 -1.5155 1.9514
-7.0495 -1.7108 2.0501
-6.4372 -1.7849 2.0173
-7.5022 -2.3467 2.5264
-7.1285 -2.4905 2.5735
-6.8884 -2.6670 2.6611
-15.2093 -6.4846 6.2775
-14.2523 -6.6575 6.2775
-13.3674 -6.8129 6.2775
-12.5450 -6.9531 6.2775
-11.7771 -7.0799 6.2775
-11.0569 -7.1949 6.2775
-10.3788 -7.2995 6.2775
-9.7377 -7.3946 6.2775
-8.9080 -7.2997 6.1251
-8.3432 -7.3769 6.1251
-7.8039 -7.4473 6.1251
-7.2873 -7.5117 6.1251
-6.7911 -7.5703 6.1251
-6.3130 -7.6239 6.1251
-5.8512 -7.6726 6.1251
-5.5384 -7.9089 6.2775
-5.0934 -7.9501 6.2775
-4.6604 -7.9874 6.2775
-4.2379 -8.0209 6.2775
-3.8249 -8.0508 6.2775
-3.4202 -8.0775 6.2775
-3.0227 -8.1009 6.2775
-2.6316 -8.1213 6.2775
-2.2459 -8.1387 6.2775
-1.8648 -8.1534 6.2775
-1.4874 -8.1652 6.2775
-1.1130 -8.1744 6.2775
-0.5746 -6.3454 4.8691
-0.2871 -6.3499 4.8703
-35.8370 19.2697 -4.7622
-20.7408 10.3118 -2.3271
-20.7885 9.5241 -1.9136
-20.8478 8.7652 -1.5086
-20.8924 8.0206 -1.1087
-20.9358 7.2940 -0.7138
-20.9784 6.5829 -0.3227
-21.0283 5.8874 0.0655
-21.0694 5.2006 0.4521
-21.1099 4.5230 0.8381
-21.1500 3.8529 1.2243
-21.1812 3.1871 1.6112
-21.2196 2.5265 2.0007
-7.1707 0.6302 0.8074
-7.2803 0.4137 0.9540
-7.3772 0.1906 1.1041
-7.4765 -0.0388 1.2599
-6.9284 -0.2516 1.3002
-6.9967 -0.4733 1.4493
-7.0659 -0.7012 1.6041
-7.1362 -0.9363 1.7651
-7.2078 -1.1794 1.9331
-7.4883 -1.4723 2.1688
-7.0635 -1.6265 2.2019
-6.9874 -1.8495 2.3379
-7.4598 -2.2381 2.6726
-7.1655 -2.4103 2.7437
-6.9284 -2.5908 2.8309
-14.4152 -5.9513 6.2775
-13.5381 -6.1370 6.2775
-12.7229 -6.3046 6.2775
-11.9617 -6.4564 6.2775
-11.2478 -6.5941 6.2775
-10.5756 -6.7195 6.2775
-9.9404 -6.8337 6.2775
-9.1113 -6.7696 6.1251
-8.5519 -6.8624 6.1251
-8.0179 -6.9474 6.1251
-7.5066 -7.0251 6.1251
-7.0157 -7.0961 6.1251
-6.5431 -7.1610 6.1251
-6.0868 -7.2204 6.1251
-5.7555 -7.4166 6.2448
-5.3466 -7.5059 6.2775
-4.9197 -7.5517 6.2775
-4.5036 -7.5932 6.2775
-4.0971 -7.6305 6.2775
-3.6993 -7.6639 6.2775
-3.3090 -7.6937 6.2775
-2.9254 -7.7199 6.2775
-2.5475 -7.7427 6.2775
-2.1747 -7.7622 6.2775
-1.8060 -7.7785 6.2775
-1.4408 -7.7918 6.2775
-1.0782 -7.8020 6.2775
-0.5832 -6.3462 5.1014
-0.2914 -6.3508 5.1023
-20.6762 11.3931 -2.2838
-20.7257 10.5754 -1.8690
-20.7736 9.7845 -1.4623
-20.8323 9.0226 -1.0631
-20.8770 8.2757 -0.6685
-20.9206 7.5470 -0.2783
-20.9633 6.8342 0.1086
-21.0125 6.1373 0.4936
-21.0536 5.4495 0.8774
-21.0942 4.7713 1.2611
-21.1343 4.1008 1.6456
-21.1666 3.4350 2.0312
-21.2049 2.7747 2.4202
-21.2431 2.1169 2.8129
-7.2008 0.4940 1.0863
-7.3043 0.2748 1.2381
-7.4014 0.0491 1.3946
-7.5011 -0.1834 1.5575
-7.6478 -0.4261 1.7378
-7.6274 -0.6654 1.8857
-6.9767 -0.8310 1.8678
-6.2894 -0.9523 1.8161
-7.5106 -1.3840 2.3314
-7.0777 -1.5413 2.3553
-6.9796 -1.7590 2.4841
-7.4176 -2.1300 2.8182
-7.1682 -2.3175 2.9026
-6.9310 -2.4994 2.9875
-13.6955 -5.4680 6.2775
-12.8881 -5.6633 6.2775
-12.1341 -5.8402 6.2775
-11.4269 -6.0010 6.2775
-10.7611 -6.1474 6.2775
-10.1318 -6.2810 6.2775
-9.5351 -6.4030 6.2775
-8.7497 -6.3565 6.1251
-8.2211 -6.4563 6.1251
-7.7151 -6.5476 6.1251
-7.2295 -6.6313 6.1251
-6.7621 -6.7080 6.1251
-6.3111 -6.7782 6.1251
-5.8750 -6.8425 6.1251
-5.5877 -7.0728 6.2775
-5.1666 -7.1275 6.2775
-4.7564 -7.1773 6.2775
-4.3561 -7.2224 6.2775
-3.9646 -7.2630 6.2775
-3.5809 -7.2994 6.2775
-3.2042 -7.3318 6.2775
-2.8335 -7.3604 6.2775
-2.4682 -7.3853 6.2775
-2.1074 -7.4066 6.2775
-1.7504 -7.4244 6.2775
-1.3966 -7.4389 6.2775
-0.9453 -6.7373 5.6769
-0.5796 -6.2122 5.2289
-0.2896 -6.2161 5.2289
-20.6373 12.5312 -2.2342
-20.6608 11.6619 -1.8152
-20.7105 10.8406 -1.4081
-20.7586 10.0465 -1.0083
-20.8167 9.2816 -0.6149
-20.8615 8.5323 -0.2257
-20.9053 7.8016 0.1597
-20.9480 7.0871 0.5426
-20.9966 6.3886 0.9243
-21.0378 5.6999 1.3052
-21.0784 5.0210 1.6866
-21.1186 4.3502 2.0694
-21.1583 3.6856 2.4546
-21.1902 3.0245 2.8422
-21.2283 2.3672 3.2348
-21.2664 1.7112 3.6328
-7.2298 0.3579 1.3701
-7.3273 0.1358 1.5275
-7.0110 -0.0876 1.5969
-7.5564 -0.3302 1.8699
-7.1695 -0.5387 1.9185
-7.5602 -0.8083 2.1792
-7.5384 -1.0487 2.3330
-6.6453 -1.1419 2.2020
-7.0920 -1.4551 2.5104
-6.9717 -1.6680 2.6312
-7.3756 -2.0223 2.9631
-7.1709 -2.2239 3.0628
-6.9336 -2.4073 3.1452
-13.0397 -5.0276 6.2775
-12.2935 -5.2300 6.2775
-11.5935 -5.4140 6.2775
-10.9344 -5.5817 6.2775
-10.3115 -5.7349 6.2775
-9.7208 -5.8750 6.2775
-8.9366 -5.8576 6.1251
-8.4134 -5.9723 6.1251
-7.9128 -6.0777 6.1251
-7.4324 -6.1743 6.1251
-6.9702 -6.2631 6.1251
-6.5245 -6.3444 6.1251
-6.0935 -6.4191 6.1251
-5.7603 -6.5838 6.2161
-5.4015 -6.7129 6.2775
-4.9970 -6.7713 6.2775
-4.6025 -6.8244 6.2775
-4.2169 -6.8726 6.2775
-3.8394 -6.9161 6.2775
-3.4691 -6.9550 6.2775
-3.1051 -6.9897 6.2775
-2.7466 -7.0204 6.2775
-2.3931 -7.0470 6.2775
-2.0437 -7.0699 6.2775
-1.6978 -7.0891 6.2775
-1.3548 -7.1046 6.2775
-0.9272 -6.5066 5.7394
-0.5855 -6.1786 5.4436
-0.2925 -6.1832 5.4437
-20.6214 12.8062 -1.7530
-20.6453 11.9326 -1.3433
-20.6953 11.1076 -0.9440
-20.7435 10.3103 -0.5511
-20.7903 9.5375 -0.1635
-20.8460 8.7906 0.2201
-20.8898 8.0579 0.6009
-20.9327 7.3417 0.9796
-20.9747 6.6399 1.3575
-21.0219 5.9520 1.7360
-21.0626 5.2725 2.1151
-21.1027 4.6013 2.4962
-21.1424 3.9367 2.8802
-21.1754 3.2760 3.2672
-21.2135 2.6193 3.6598
-21.2515 1.9642 4.0583
-7.1454 0.4393 1.4982
-6.5429 0.1999 1.4962
-6.8221 -0.0030 1.6923
-7.4359 -0.2348 1.9918
-7.4736 -0.4704 2.1534
-7.5108 -0.7106 2.3205
-7.0677 -0.8955 2.3350
-6.4307 -1.0243 2.2667
-7.0144 -1.3501 2.6329
-7.1277 -1.6136 2.8445
-7.3337 -1.9150 3.1077
-7.1737 -2.1294 3.2245
-6.9362 -2.3143 3.3045
-12.4390 -4.6242 6.2775
-11.7469 -4.8316 6.2775
-11.0951 -5.0209 6.2775
-10.4789 -5.1939 6.2775
-9.8947 -5.3523 6.2775
-9.1121 -5.3642 6.1251
-8.5946 -5.4942 6.1251
-8.0995 -5.6137 6.1251
-7.6244 -5.7236 6.1251
-7.1675 -5.8246 6.1251
-6.7269 -5.9175 6.1251
-6.3012 -6.0028 6.1251
-5.8888 -6.0811 6.1251
-5.6250 -6.3060 6.2775
-5.2259 -6.3734 6.2775
-4.8369 -6.4349 6.2775
-4.4570 -6.4909 6.2775
-4.0854 -6.5418 6.2775
-3.7210 -6.5877 6.2775
-3.3632 -6.6288 6.2775
-3.0112 -6.6655 6.2775
-2.6643 -6.6979 6.2775
-2.3218 -6.7262 6.2775
-1.9832 -6.7504 6.2775
-1.6478 -6.7707 6.2775
-1.3151 -6.7871 6.2775
-0.9289 -6.4159 5.9230
-0.5949 -6.1789 5.6967
-0.2972 -6.1836 5.6965
-20.6053 13.0835 -1.2680
-20.6297 12.2055 -0.8677
-20.6799 11.3768 -0.4761
-20.7283 10.5762 -0.0902
-20.7753 9.8006 0.2912
-20.8303 9.0510 0.6696
-20.8743 8.3162 1.0455
-20.9172 7.5984 1.4202
-20.9593 6.8952 1.7946
-21.0058 6.2062 2.1702
-21.0465 5.5260 2.5470
-21.0867 4.8545 2.9264
-21.1264 4.1899 3.3092
-21.1659 3.5304 3.6966
-21.1985 2.8735 4.0882
-21.2365 2.2192 4.4871
-21.2744 1.5651 4.8937
-7.1714 0.3060 1.7864
-6.6414 0.0779 1.7836
-6.9288 -0.1340 1.9987
-7.3537 -0.3723 2.2713
-7.3888 -0.6074 2.4372
-7.4232 -0.8475 2.6091
-7.4229 -1.0883 2.7747
-7.0252 -1.2621 2.7886
-7.4341 -1.5863 3.1295
-7.0004 -1.7356 3.1220
-7.1765 -2.0339 3.3879
-6.9388 -2.2203 3.4654
-11.8861 -4.2530 6.2775
-11.2423 -4.4639 6.2775
-10.6335 -4.6569 6.2775
-10.0561 -4.8338 6.2775
-9.5067 -4.9962 6.2775
-8.7644 -5.0205 6.1251
-8.2749 -5.1545 6.1251
-7.8054 -5.2778 6.1251
-7.3538 -5.3913 6.1251
-6.9185 -5.4959 6.1251
-6.4980 -5.5922 6.1251
-6.0907 -5.6808 6.1251
-5.7633 -5.8307 6.1980
-5.4435 -5.9821 6.2775
-5.0598 -6.0523 6.2775
-4.6854 -6.1165 6.2775
-4.3193 -6.1750 6.2775
-3.9606 -6.2281 6.2775
-3.6086 -6.2760 6.2775
-3.2626 -6.3191 6.2775
-2.9219 -6.3575 6.2775
-2.5860 -6.3915 6.2775
-2.2541 -6.4210 6.2775
-1.9257 -6.4464 6.2775
-1.6003 -6.4677 6.2775
-1.2773 -6.4850 6.2775
-0.9563 -6.4983 6.2775
-0.6046 -6.1792 5.9605
-0.3021 -6.1840 5.9599
-20.5888 13.3631 -0.7786
-20.6140 12.4809 -0.3877
-20.6643 11.6485 -0.0040
-20.7130 10.8446 0.3749
-20.7601 10.0661 0.7501
-20.8144 9.3139 1.1231
-20.8585 8.5770 1.4943
-20.9016 7.8574 1.8648
-20.9438 7.1529 2.2357
-20.9852 6.4613 2.6078
-21.0304 5.7818 2.9828
-21.0706 5.1100 3.3605
-21.1103 4.4453 3.7422
-21.1497 3.7862 4.1289
-21.1834 3.1300 4.5205
-21.2213 2.4766 4.9200
-21.2592 1.8238 5.3275
-21.2971 1.1697 5.7443
-7.1679 0.1722 2.0734
-6.7396 -0.0470 2.0844
-7.0355 -0.2686 2.3205
-7.2694 -0.5063 2.5514
-7.3016 -0.7411 2.7220
-7.3330 -0.9813 2.8992
-7.3636 -1.2275 3.0835
-7.6292 -1.5277 3.3803
-7.4251 -1.7419 3.4781
-7.1793 -1.9373 3.5531
-6.9415 -2.1253 3.6282
-11.3752 -3.9099 6.2775
-10.7745 -4.1230 6.2775
-10.2045 -4.3185 6.2775
-9.6620 -4.4982 6.2775
-8.9223 -4.5504 6.1251
-8.4389 -4.6990 6.1251
-7.9751 -4.8359 6.1251
-7.5291 -4.9622 6.1251
-7.0992 -5.0787 6.1251
-6.6839 -5.1861 6.1251
-6.2819 -5.2852 6.1251
-5.8918 -5.3765 6.1251
-5.6499 -5.5963 6.2775
-5.2715 -5.6754 6.2775
-4.9024 -5.7480 6.2775
-4.5416 -5.8144 6.2775
-4.1884 -5.8749 6.2775
-3.8420 -5.9299 6.2775
-3.5017 -5.9797 6.2775
-3.1669 -6.0244 6.2775
-2.8370 -6.0643 6.2775
-2.5114 -6.0995 6.2775
-2.1895 -6.1302 6.2775
-1.8709 -6.1566 6.2775
-1.5550 -6.1787 6.2775
-1.2413 -6.1967 6.2775
-0.9294 -6.2106 6.2775
-0.6189 -6.2205 6.2775
-0.3093 -6.2264 6.2775
-20.5701 13.6442 -0.2842
-20.6232 12.7747 0.0973
-20.6486 11.9229 0.4730
-20.6974 11.1157 0.8448
-20.7447 10.3343 1.2137
-20.7906 9.5757 1.5807
-20.8427 8.8404 1.9476
-20.8859 8.1191 2.3139
-20.9281 7.4132 2.6812
-20.9696 6.7205 3.0505
-21.0140 6.0402 3.4231
-21.0543 5.3680 3.7990
-21.0940 4.7034 4.1795
-21.1334 4.0445 4.5656
-21.1681 3.3891 4.9573
-21.2059 2.7367 5.3573
-21.2438 2.0851 5.7659
-21.0781 1.4189 6.1251
-19.7448 0.7201 6.1251
-6.5587 0.0363 2.1666
-6.8371 -0.1749 2.4000
-7.1418 -0.4068 2.6592
-7.1825 -0.6370 2.8325
-7.2116 -0.8716 3.0084
-7.2397 -1.1119 3.1914
-7.4307 -1.3892 3.4586
-7.4281 -1.6423 3.6482
-7.1822 -1.8396 3.7204
-7.5103 -2.1946 4.1021
-10.9011 -3.5916 6.2775
-10.3392 -3.8058 6.2775
-9.8043 -4.0030 6.2775
-9.0679 -4.0829 6.1251
-8.5910 -4.2463 6.1251
-8.1333 -4.3971 6.1251
-7.6931 -4.5363 6.1251
-7.2688 -4.6649 6.1251
-6.8590 -4.7837 6.1251
-6.4622 -4.8934 6.1251
-6.0774 -4.9947 6.1251
-5.7645 -5.1427 6.1907
-5.4722 -5.3030 6.2775
-5.1083 -5.3842 6.2775
-4.7528 -5.4587 6.2775
-4.4048 -5.5270 6.2775
-4.0638 -5.5893 6.2775
-3.7290 -5.6459 6.2775
-3.3998 -5.6972 6.2775
-3.0756 -5.7433 6.2775
-2.7559 -5.7844 6.2775
-2.4401 -5.8208 6.2775
-2.1278 -5.8525 6.2775
-1.8185 -5.8798 6.2775
-1.5116 -5.9026 6.2775
-1.2069 -5.9212 6.2775
-0.9037 -5.9356 6.2775
-0.6018 -5.9458 6.2775
-0.3007 -5.9519 6.2775
-20.5513 13.9285 0.2157
-20.6069 13.0562 0.5882
-20.6327 12.2004 0.9553
-20.6817 11.3899 1.3200
-20.7292 10.6056 1.6825
-20.7752 9.8445 2.0440
-20.8266 9.1067 2.4060
-20.8699 8.3837 2.7681
-20.9122 7.6764 3.1319
-20.9538 6.9827 3.4981
-20.9975 6.3015 3.8684
-21.0378 5.6290 4.2425
-21.0775 4.9643 4.6218
-21.1169 4.3058 5.0073
-21.1560 3.6517 5.3999
-21.1904 2.9997 5.7995
-20.9408 2.3176 6.1251
-19.6651 1.5707 6.1302
-18.9404 0.9295 6.2775
-17.8505 0.3249 6.2775
-6.6475 -0.0853 2.4762
-6.9334 -0.3058 2.7317
-7.0657 -0.5350 2.9408
-7.0926 -0.7642 3.1154
-7.1184 -0.9988 3.2971
-7.3973 -1.2834 3.6107
-7.4312 -1.5415 3.8207
-7.1851 -1.7405 3.8900
-11.0126 -3.0621 6.2775
-10.4596 -3.2951 6.2775
-9.9328 -3.5097 6.2775
-9.2008 -3.6176 6.1251
-8.7307 -3.7958 6.1251
-8.2796 -3.9605 6.1251
-7.8456 -4.1128 6.1251
-7.4272 -4.2536 6.1251
-7.0229 -4.3840 6.1251
-6.6316 -4.5046 6.1251
-6.2521 -4.6161 6.1251
-5.8834 -4.7192 6.1251
-5.6619 -4.9342 6.2775
-5.3033 -5.0242 6.2775
-4.9529 -5.1070 6.2775
-4.6102 -5.1832 6.2775
-4.2745 -5.2530 6.2775
-3.9450 -5.3168 6.2775
-3.6212 -5.3748 6.2775
-3.3025 -5.4273 6.2775
-2.9884 -5.4746 6.2775
-2.6784 -5.5168 6.2775
-2.3720 -5.5541 6.2775
-2.0688 -5.5867 6.2775
-1.7683 -5.6147 6.2775
-1.4701 -5.6382 6.2775
-1.1739 -5.6573 6.2775
-0.8791 -5.6721 6.2775
-0.5855 -5.6826 6.2775
-0.2926 -5.6889 6.2775
-20.5327 14.2165 0.7215
-20.5902 13.3411 1.0852
-20.6166 12.4814 1.4436
-20.6658 11.6675 1.8011
-20.7135 10.8802 2.1572
-20.7597 10.1166 2.5130
-20.8104 9.3764 2.8701
-20.8538 8.6516 3.2279
-20.8962 7.9429 3.5881
-20.9378 7.2482 3.9513
-20.9786 6.5654 4.3187
-21.0211 5.8932 4.6914
-21.0608 5.2285 5.0695
-21.1002 4.5703 5.4543
-21.1392 3.9169 5.8469
-20.7607 3.2021 6.1251
-19.6003 2.4181 6.1520
-18.8422 1.7448 6.2775
-17.7857 1.1002 6.2775
-16.8162 0.5221 6.2775
-15.9217 0.0017 6.2775
-6.7342 -0.2092 2.8010
-6.9503 -0.4348 3.0467
-7.0658 -0.6673 3.2618
-6.9994 -0.8878 3.4006
-7.2972 -1.1664 3.7295
-7.3747 -1.4276 3.9637
-7.1880 -1.6399 4.0621
-10.5649 -2.7860 6.2775
-10.0470 -3.0180 6.2775
-9.5521 -3.2322 6.2775
-8.8576 -3.3469 6.1251
-8.4135 -3.5257 6.1251
-7.9860 -3.6911 6.1251
-7.5739 -3.8444 6.1251
-7.1756 -3.9863 6.1251
-6.7900 -4.1179 6.1251
-6.4160 -4.2398 6.1251
-6.0527 -4.3527 6.1251
-5.7638 -4.5079 6.1948
-5.4874 -4.6671 6.2775
-5.1423 -4.7585 6.2775
-4.8048 -4.8427 6.2775
-4.4742 -4.9202 6.2775
-4.1499 -4.9913 6.2775
-3.8314 -5.0563 6.2775
-3.5180 -5.1155 6.2775
-3.2093 -5.1691 6.2775
-2.9049 -5.2173 6.2775
-2.6041 -5.2604 6.2775
-2.3067 -5.2986 6.2775
-2.0122 -5.3319 6.2775
-1.7202 -5.3605 6.2775
-1.4303 -5.3845 6.2775
-1.1422 -5.4041 6.2775
-0.8554 -5.4192 6.2775
-0.5698 -5.4299 6.2775
-0.2847 -5.4364 6.2775
-20.5181 14.5113 1.2344
-20.5712 13.6284 1.5887
-20.6229 12.7801 1.9406
-20.6497 11.9489 2.2886
-20.6975 11.1586 2.6383
-20.7439 10.3924 2.9883
-20.7890 9.6474 3.3397
-20.8374 8.9231 3.6940
-20.8799 8.2130 4.0504
-20.9216 7.5172 4.4107
-20.9625 6.8337 4.7756
-21.0042 6.1609 5.1464
-21.0439 5.4963 5.5233
-21.0833 4.8384 5.9075
-20.5360 4.0694 6.1251
-19.5412 3.2655 6.1888
-18.7069 2.5490 6.2775
-17.6872 1.8664 6.2775
-16.7493 1.2533 6.2775
-15.8820 0.7003 6.2775
-12.1765 0.1611 5.0700
-11.5634 -0.2062 5.0672
-6.7539 -0.3323 3.1126
-6.8608 -0.5554 3.3232
-6.9698 -0.7888 3.5466
-7.0813 -1.0338 3.7843
-7.1957 -1.2917 4.0379
-10.6542 -2.2783 6.2775
-10.1461 -2.5277 6.2775
-9.6602 -2.7583 6.2775
-8.9712 -2.8994 6.1251
-8.5346 -3.0922 6.1251
-8.1142 -3.2708 6.1251
-7.7086 -3.4365 6.1251
-7.3167 -3.5903 6.1251
-6.9371 -3.7329 6.1251
-6.5689 -3.8653 6.1251
-6.2110 -3.9881 6.1251
-5.8628 -4.1020 6.1251
-5.6606 -4.3122 6.2775
-5.3209 -4.4123 6.2775
-4.9886 -4.5048 6.2775
-4.6632 -4.5901 6.2775
-4.3441 -4.6687 6.2775
-4.0307 -4.7408 6.2775
-3.7226 -4.8068 6.2775
-3.4192 -4.8669 6.2775
-3.1200 -4.9214 6.2775
-2.8247 -4.9705 6.2775
-2.5328 -5.0143 6.2775
-2.2440 -5.0531 6.2775
-1.9578 -5.0871 6.2775
-1.6740 -5.1162 6.2775
-1.3921 -5.1407 6.2775
-1.1117 -5.1606 6.2775
-0.8327 -5.1760 6.2775
-0.5546 -5.1870 6.2775
-0.2772 -5.1935 6.2775
-20.5033 14.8104 1.7548
-20.5518 13.9198 2.0994
-20.6061 13.0692 2.4433
-20.6334 12.2343 2.7834
-20.6814 11.4411 3.1264
-20.7279 10.6722 3.4707
-20.7731 9.9250 3.8170
-20.8208 9.1986 4.1668
-20.8634 8.4871 4.5196
-20.9051 7.7902 4.8768
-20.9461 7.1059 5.2392
-20.9864 6.4324 5.6079
-21.0268 5.7679 5.9836
-20.2651 4.9161 6.1251
-19.4794 4.1148 6.2389
-18.5326 3.3394 6.2775
-17.5534 2.6217 6.2775
-16.6500 1.9756 6.2775
-15.8128 1.3917 6.2775
-12.1514 0.6968 5.0741
-11.5559 0.3071 5.0711
-10.9980 -0.0483 5.0685
-10.6742 -0.3803 5.1631
-12.3703 -0.8316 6.2775
-6.7646 -0.6717 3.6004
-6.8668 -0.9058 3.8324
-6.9710 -1.1517 4.0795
-7.3873 -1.4724 4.5334
-9.7532 -2.2855 6.2775
-9.0708 -2.4530 6.1251
-8.6423 -2.6597 6.1251
-8.2295 -2.8516 6.1251
-7.8311 -3.0298 6.1251
-7.4458 -3.1953 6.1251
-7.0726 -3.3491 6.1251
-6.7104 -3.4921 6.1251
-6.3584 -3.6249 6.1251
-6.0157 -3.7483 6.1251
-5.7611 -3.9169 6.2108
-5.4886 -4.0678 6.2775
-5.1617 -4.1687 6.2775
-4.8415 -4.2621 6.2775
-4.5276 -4.3482 6.2775
-4.2194 -4.4276 6.2775
-3.9164 -4.5006 6.2775
-3.6181 -4.5673 6.2775
-3.3242 -4.6282 6.2775
-3.0342 -4.6834 6.2775
-2.7477 -4.7332 6.2775
-2.4643 -4.7776 6.2775
-2.1837 -4.8170 6.2775
-1.9055 -4.8515 6.2775
-1.6295 -4.8810 6.2775
-1.3552 -4.9059 6.2775
-1.0824 -4.9261 6.2775
-0.8108 -4.9418 6.2775
-0.5401 -4.9529 6.2775
-0.2699 -4.9596 6.2775
-20.4919 15.1170 2.2839
-20.5327 14.2161 2.6181
-20.5888 13.3627 2.9538
-20.6370 12.5366 3.2891
-20.6649 11.7280 3.6223
-20.7116 10.9565 3.9607
-20.7569 10.2070 4.3018
-20.8011 9.4771 4.6465
-20.8466 8.7655 4.9961
-20.8884 8.0675 5.3502
-20.9294 7.3825 5.7102
-20.9698 6.7086 6.0770
-19.9472 5.7382 6.1251
-19.3342 4.9479 6.2775
-18.3183 4.1134 6.2775
-17.3828 3.3636 6.2775
-16.5172 2.6871 6.2775
-15.7126 2.0743 6.2775
-12.1031 1.2276 5.0781
-11.5270 0.8164 5.0750
-10.9862 0.4411 5.0722
-10.6715 0.0992 5.1638
-10.6734 -0.2328 5.4109
-10.6752 -0.5686 5.6682
-11.2900 -0.9614 6.2775
-10.7819 -1.2679 6.2775
-10.2961 -1.5513 6.2775
-7.5632 -1.3956 4.8296
-7.4393 -1.6312 4.9768
-8.7361 -2.2282 6.1251
-8.3315 -2.4333 6.1251
-7.9407 -2.6239 6.1251
-7.5626 -2.8012 6.1251
-7.1962 -2.9662 6.1251
-6.8404 -3.1197 6.1251
-6.4945 -3.2627 6.1251
-6.1577 -3.3956 6.1251
-5.8292 -3.5193 6.1251
-5.6455 -3.7247 6.2775
-5.3240 -3.8340 6.2775
-5.0092 -3.9355 6.2775
-4.7005 -4.0294 6.2775
-4.3975 -4.1161 6.2775
-4.0997 -4.1962 6.2775
-3.8065 -4.2697 6.2775
-3.5177 -4.3371 6.2775
-3.2329 -4.3986 6.2775
-2.9516 -4.4543 6.2775
-2.6735 -4.5046 6.2775
-2.3982 -4.5496 6.2775
-2.1255 -4.5895 6.2775
-1.8551 -4.6243 6.2775
-1.5866 -4.6543 6.2775
-1.3197 -4.6795 6.2775
-1.0541 -4.7000 6.2775
-0.7897 -4.7158 6.2775
-0.5260 -4.7271 6.2775
-0.2629 -4.7339 6.2775
-20.4903 15.4365 2.8236
-20.5177 14.5204 3.1461
-20.5691 13.6597 3.4726
-20.6199 12.8316 3.8006
-20.6482 12.0197 4.1266
-20.6950 11.2456 4.4590
-20.7405 10.4939 4.7949
-20.7848 9.7621 5.1351
-20.8296 9.0486 5.4808
-20.8714 8.3495 5.8317
-20.6960 7.5844 6.1251
-19.5816 6.5320 6.1251
-19.0239 5.7316 6.2775
-18.0629 4.8677 6.2775
-17.1745 4.0893 6.2775
-16.3495 3.3853 6.2775
-15.5803 2.7461 6.2775
-12.0306 1.7520 5.0821
-11.4757 1.3207 5.0789
-10.9536 0.9263 5.0759
-10.6689 0.5758 5.1741
-10.6707 0.2479 5.4138
-10.6601 -0.0826 5.6566
-10.6744 -0.4168 5.9232
-10.8186 -0.7656 6.2775
-10.3454 -1.0656 6.2775
-9.8915 -1.3439 6.2775
-9.4551 -1.6023 6.2775
-7.3606 -1.5010 5.1143
-8.4197 -2.0157 6.1251
-8.0371 -2.2187 6.1251
-7.6667 -2.4078 6.1251
-7.3075 -2.5839 6.1251
-6.9585 -2.7481 6.1251
-6.6191 -2.9011 6.1251
-6.2885 -3.0437 6.1251
-5.9659 -3.1765 6.1251
-5.7564 -3.3618 6.2395
-5.4755 -3.5002 6.2775
-5.1662 -3.6098 6.2775
-4.8629 -3.7116 6.2775
-4.5651 -3.8059 6.2775
-4.2725 -3.8931 6.2775
-3.9845 -3.9735 6.2775
-3.7008 -4.0475 6.2775
-3.4210 -4.1154 6.2775
-3.1449 -4.1773 6.2775
-2.8719 -4.2335 6.2775
-2.6019 -4.2842 6.2775
-2.3345 -4.3296 6.2775
-2.0694 -4.3698 6.2775
-1.8064 -4.4050 6.2775
-1.5451 -4.4353 6.2775
-1.2853 -4.4607 6.2775
-1.0268 -4.4814 6.2775
-0.7693 -4.4974 6.2775
-0.5125 -4.5088 6.2775
-0.2562 -4.5157 6.2775
-20.4886 15.7622 3.3740
-20.5023 14.8303 3.6838
-20.5490 13.9621 4.0007
-20.6025 13.1320 4.3214
-20.6312 12.3168 4.6400
-20.6782 11.5399 4.9663
-20.7238 10.7859 5.2970
-20.7681 10.0522 5.6326
-20.8122 9.3368 5.9742
-20.2050 8.3677 6.1251
-19.2938 7.3408 6.1651
-18.6687 6.4876 6.2775
-17.7659 5.5991 6.2775
-16.9277 4.7961 6.2775
-16.1463 4.0677 6.2775
-15.4151 3.4049 6.2775
-11.9329 2.2685 5.0860
-11.4012 1.8186 5.0826
-10.8995 1.4063 5.0795
-10.6664 1.0514 5.1943
-10.6681 0.7262 5.4269
-10.6699 0.3995 5.6687
-10.4540 0.0690 5.7997
-10.8361 -0.2660 6.2775
-10.3767 -0.5820 6.2775
-9.9352 -0.8755 6.2775
-9.5104 -1.1484 6.2775
-8.8797 -1.3683 6.1251
-7.2781 -1.3703 5.2487
-7.4087 -1.6555 5.5887
-7.7576 -2.0150 6.1251
-7.4061 -2.2022 6.1251
-7.0644 -2.3769 6.1251
-6.7318 -2.5400 6.1251
-6.4077 -2.6922 6.1251
-6.0913 -2.8342 6.1251
-5.7822 -2.9667 6.1251
-5.6161 -3.1670 6.2775
-5.3124 -3.2849 6.2775
-5.0146 -3.3945 6.2775
-4.7222 -3.4963 6.2775
-4.4348 -3.5908 6.2775
-4.1521 -3.6783 6.2775
-3.8735 -3.7590 6.2775
-3.5989 -3.8333 6.2775
-3.3278 -3.9015 6.2775
-3.0599 -3.9637 6.2775
-2.7950 -4.0203 6.2775
-2.5328 -4.0713 6.2775
-2.2729 -4.1170 6.2775
-2.0152 -4.1575 6.2775
-1.7593 -4.1929 6.2775
-1.5050 -4.2234 6.2775
-1.2521 -4.2490 6.2775
-1.0004 -4.2699 6.2775
-0.7495 -4.2861 6.2775
-0.4993 -4.2976 6.2775
-0.2496 -4.3044 6.2775
-20.4943 16.1006 3.9372
-20.4917 15.1500 4.2330
-20.5300 14.2711 4.5391
-20.5838 13.4376 4.8521
-20.6316 12.6305 5.1678
-20.6610 11.8400 5.4835
-20.7067 11.0836 5.8088
-20.7017 10.3233 6.1251
-19.6643 9.1072 6.1251
-19.1746 8.2170 6.2775
-18.2689 7.2121 6.2775
-17.4273 6.3041 6.2775
-16.6421 5.4808 6.2775
-15.9069 4.7317 6.2775
-15.2161 4.0482 6.2775
-11.8096 2.7752 5.0899
-11.3027 2.3084 5.0864
-10.8230 1.8797 5.0831
-10.6638 1.5276 5.2251
-10.6655 1.2039 5.4507
-10.6673 0.8797 5.6850
-10.6691 0.5543 5.9289
-10.4897 0.2229 6.0782
-10.3890 -0.1012 6.2775
-9.9612 -0.4094 6.2775
-9.5487 -0.6964 6.2775
-8.9282 -0.9404 6.1251
-8.5523 -1.1837 6.1251
-8.1881 -1.4109 6.1251
-7.3233 -1.5170 5.7253
-7.4915 -1.8211 6.1251
-7.1576 -2.0063 6.1251
-6.8323 -2.1794 6.1251
-6.5151 -2.3411 6.1251
-6.2053 -2.4923 6.1251
-5.9024 -2.6335 6.1251
-5.7454 -2.8341 6.2775
-5.4477 -2.9603 6.2775
-5.1556 -3.0778 6.2775
-4.8687 -3.1873 6.2775
-4.5868 -3.2891 6.2775
-4.3093 -3.3836 6.2775
-4.0359 -3.4711 6.2775
-3.7664 -3.5519 6.2775
-3.5004 -3.6264 6.2775
-3.2376 -3.6948 6.2775
-2.9778 -3.7572 6.2775
-2.7206 -3.8140 6.2775
-2.4659 -3.8652 6.2775
-2.2133 -3.9111 6.2775
-1.9626 -3.9518 6.2775
-1.7137 -3.9875 6.2775
-1.4662 -4.0181 6.2775
-1.2199 -4.0439 6.2775
-0.9747 -4.0649 6.2775
-0.7304 -4.0811 6.2775
-0.4866 -4.0927 6.2775
-0.2432 -4.0996 6.2775
-20.5035 16.4494 4.5141
-20.4900 15.4834 4.7961
-20.5143 14.5891 5.0894
-20.5632 13.7484 5.3931
-20.6136 12.9397 5.7024
-20.6435 12.1462 6.0114
-20.0223 11.0203 6.1270
-19.1933 9.8585 6.1627
-18.6574 8.9176 6.2775
-17.8254 7.9012 6.2775
-17.0475 6.9792 6.2775
-16.3179 6.1402 6.2775
-15.6313 5.3744 6.2775
-14.9832 4.6735 6.2775
-11.6599 3.2704 5.0937
-11.1796 2.7885 5.0900
-10.7236 2.3451 5.0867
-10.6612 2.0061 5.2672
-10.6629 1.6826 5.4858
-10.6647 1.3597 5.7128
-10.6664 1.0366 5.9489
-10.8104 0.7220 6.2775
-10.3819 0.3760 6.2775
-9.9686 0.0538 6.2775
-9.5695 -0.2467 6.2775
-9.1834 -0.5271 6.2775
-8.5956 -0.7698 6.1251
-8.2416 -1.0086 6.1251
-7.8978 -1.2319 6.1251
-7.2364 -1.3784 5.8603
-7.2378 -1.6362 6.1251
-6.9203 -1.8191 6.1251
-6.6104 -1.9903 6.1251
-6.3075 -2.1506 6.1251
-6.0112 -2.3005 6.1251
-5.7672 -2.4604 6.1745
-5.5718 -2.6358 6.2775
-5.2856 -2.7613 6.2775
-5.0045 -2.8784 6.2775
-4.7281 -2.9875 6.2775
-4.4561 -3.0891 6.2775
-4.1880 -3.1835 6.2775
-3.9237 -3.2709 6.2775
-3.6629 -3.3518 6.2775
-3.4052 -3.4263 6.2775
-3.1504 -3.4947 6.2775
-2.8982 -3.5573 6.2775
-2.6485 -3.6142 6.2775
-2.4010 -3.6655 6.2775
-2.1555 -3.7116 6.2775
-1.9117 -3.7524 6.2775
-1.6694 -3.7881 6.2775
-1.4285 -3.8189 6.2775
-1.1887 -3.8448 6.2775
-0.9498 -3.8659 6.2775
-0.7118 -3.8822 6.2775
-0.4742 -3.8938 6.2775
-0.2371 -3.9008 6.2775
-20.5181 16.8111 5.1065
-20.4883 15.8246 5.3723
-20.4982 14.9141 5.6519
-20.5421 14.0659 5.9459
-20.1976 12.9996 6.1279
-19.2855 11.6497 6.1252
-18.9026 10.6970 6.2775
-18.0963 9.5724 6.2775
-17.3397 8.5512 6.2775
-16.6277 7.6209 6.2775
-15.9556 6.7710 6.2775
-15.3197 5.9926 6.2775
-14.7163 5.2780 6.2775
-14.1426 4.6205 6.2775
-11.0317 3.2571 5.0936
-10.6567 2.8155 5.1170
-10.6585 2.4885 5.3212
-10.6603 2.1640 5.5329
-10.6620 1.8412 5.7526
-10.6638 1.5192 5.9811
-10.7660 1.2085 6.2775
-10.3545 0.8488 6.2775
-9.9569 0.5133 6.2775
-9.5721 0.2000 6.2775
-9.1992 -0.0929 6.2775
-8.6228 -0.3578 6.1251
-8.2798 -0.6079 6.1251
-7.9461 -0.8420 6.1251
-7.6212 -1.0613 6.1251
-7.3044 -1.2668 6.1251
-6.9952 -1.4594 6.1251
-6.6931 -1.6400 6.1251
-6.3976 -1.8092 6.1251
-6.1082 -1.9677 6.1251
-5.8247 -2.1162 6.1251
-5.6845 -2.3114 6.2775
-5.4046 -2.4448 6.2775
-5.1295 -2.5695 6.2775
-4.8588 -2.6860 6.2775
-4.5924 -2.7947 6.2775
-4.3298 -2.8959 6.2775
-4.0708 -2.9900 6.2775
-3.8151 -3.0772 6.2775
-3.5626 -3.1579 6.2775
-3.3129 -3.2324 6.2775
-3.0658 -3.3008 6.2775
-2.8211 -3.3634 6.2775
-2.5786 -3.4203 6.2775
-2.3381 -3.4717 6.2775
-2.0993 -3.5178 6.2775
-1.8622 -3.5587 6.2775
-1.6264 -3.5945 6.2775
-1.3918 -3.6253 6.2775
-1.1583 -3.6513 6.2775
-0.9257 -3.6724 6.2775
-0.6937 -3.6888 6.2775
-0.4622 -3.7004 6.2775
-0.2311 -3.7074 6.2775
-20.5381 17.1865 5.7160
-20.4964 16.1821 5.9658
-20.1553 15.0037 6.1283
-19.3053 13.5385 6.1257
-18.9746 12.5217 6.2775
-18.2129 11.2946 6.2775
-17.4941 10.1777 6.2775
-16.8141 9.1583 6.2775
-16.1692 8.2256 6.2775
-15.5564 7.3701 6.2775
-14.9727 6.5836 6.2775
-14.4158 5.8591 6.2775
-13.8834 5.1903 6.2775
-13.3735 4.5720 6.2775
-10.6541 3.3069 5.1908
-10.6559 2.9767 5.3882
-10.6576 2.6499 5.5928
-10.6594 2.3259 5.8053
-10.6612 2.0037 6.0261
-10.6996 1.6885 6.2775
-10.3064 1.3161 6.2775
-9.9255 0.9682 6.2775
-9.5560 0.6428 6.2775
-9.1971 0.3382 6.2775
-8.8482 0.0529 6.2775
-8.3021 -0.2092 6.1251
-7.9793 -0.4538 6.1251
-7.6645 -0.6832 6.1251
-7.3571 -0.8985 6.1251
-7.0567 -1.1005 6.1251
-6.7629 -1.2901 6.1251
-6.4752 -1.4681 6.1251
-6.1932 -1.6352 6.1251
-5.9167 -1.7919 6.1251
-5.7555 -1.9768 6.2448
-5.5122 -2.1283 6.2775
-5.2433 -2.2606 6.2775
-4.9787 -2.3844 6.2775
-4.7180 -2.5001 6.2775
-4.4611 -2.6082 6.2775
-4.2075 -2.7089 6.2775
-3.9573 -2.8025 6.2775
-3.7099 -2.8895 6.2775
-3.4654 -2.9700 6.2775
-3.2234 -3.0443 6.2775
-2.9837 -3.1125 6.2775
-2.7462 -3.1750 6.2775
-2.5107 -3.2319 6.2775
-2.2769 -3.2833 6.2775
-2.0447 -3.3294 6.2775
-1.8140 -3.3703 6.2775
-1.5846 -3.4061 6.2775
-1.3562 -3.4370 6.2775
-1.1288 -3.4629 6.2775
-0.9021 -3.4841 6.2775
-0.6761 -3.5005 6.2775
-0.4505 -3.5122 6.2775
-0.2252 -3.5192 6.2775
