ply
format ascii 1.0
element vertex 1751
property float32 x
property float32 y
property float32 z
end_header
0.0001 -16.5984 6.2793
0.6316 -16.6040 6.2793
1.2659 -16.6207 6.2793
1.9055 -16.6489 6.2793
2.5535 -16.6888 6.2793
3.2127 -16.7409 6.2793
3.8862 -16.8055 6.2793
4.5776 -16.8835 6.2793
5.1621 -16.5636 6.1269
5.8828 -16.6684 6.1269
6.4859 -16.4169 5.9911
6.4833 -14.7948 5.3550
6.4159 -13.2977 4.7687
9.1184 -17.2686 6.1284
10.0479 -17.4737 6.1290
11.0426 -17.7063 6.1296
12.1138 -17.9701 6.1303
13.2755 -18.2702 6.1310
14.5444 -18.6122 6.1318
15.9418 -19.0038 6.1327
17.4942 -19.4543 6.1337
19.2356 -19.9760 6.1348
21.1584 -20.5344 6.1211
22.6045 -20.5100 5.9095
24.1453 -20.4841 5.6762
25.7944 -20.4563 5.4182
27.5678 -20.4264 5.1322
29.4851 -20.3941 4.8141
21.6010 -12.9675 2.5910
21.6740 -12.0876 2.1524
21.6871 -11.2081 1.7182
21.6998 -10.3608 1.2936
21.7120 -9.5417 0.8774
28.4973 -11.4752 0.6137
28.5640 -10.4816 0.0839
28.5788 -9.4925 -0.4414
28.5416 -8.5102 -0.9608
28.4796 -7.5438 -1.4745
28.5696 -6.6339 -1.9948
28.5833 -5.7172 -2.5113
31.3582 -5.2760 -3.3217
0.0001 -15.5322 6.2793
0.5985 -15.5365 6.2793
1.1992 -15.5496 6.2793
1.8048 -15.5716 6.2793
2.4177 -15.6027 6.2793
3.0404 -15.6432 6.2793
3.6758 -15.6934 6.2793
4.3268 -15.7540 6.2793
4.8796 -15.4547 6.1323
5.5508 -15.5224 6.1269
6.2520 -15.6158 6.1269
6.4786 -14.5862 5.6842
6.4117 -13.1085 5.0692
6.4938 -12.1285 4.6499
9.4136 -16.1408 6.1286
10.3243 -16.3179 6.1291
11.2998 -16.5181 6.1298
12.3509 -16.7444 6.1304
13.4913 -17.0011 6.1312
14.7373 -17.2930 6.1320
16.1095 -17.6265 6.1328
17.6336 -18.0093 6.1338
19.3424 -18.4516 6.1349
21.2790 -18.9667 6.1361
23.4997 -19.5720 6.1376
26.0815 -20.2914 6.1392
28.1111 -20.4172 5.9261
30.0914 -20.3839 5.6360
32.2491 -20.3475 5.3115
21.7443 -12.7568 3.1075
21.7834 -11.8572 2.6536
21.6914 -10.9255 2.1979
21.7040 -10.0824 1.7656
21.7161 -9.2673 1.3424
22.8334 -8.9080 0.9739
26.6500 -9.4489 0.6342
28.5324 -9.1272 0.1482
28.4707 -8.1431 -0.3763
28.6126 -7.2341 -0.9010
28.5747 -6.2929 -1.4194
30.1848 -5.6780 -2.0469
28.6286 -2.6849 -3.5060
28.6419 -1.7969 -4.0360
28.6552 -0.9099 -4.5722
28.6684 -0.0215 -5.1159
28.6818 0.8706 -5.6686
0.0001 -14.5785 6.2793
0.5688 -14.5818 6.2793
1.1397 -14.5919 6.2793
1.7148 -14.6087 6.2793
2.2963 -14.6326 6.2793
2.8867 -14.6636 6.2793
3.4882 -14.7021 6.2793
4.1035 -14.7484 6.2793
4.7005 -14.6937 6.2330
5.2563 -14.5056 6.1269
5.9146 -14.5767 6.1269
6.4384 -14.3005 5.9776
6.4429 -12.9921 5.3969
6.3813 -11.7527 4.8479
6.7213 -11.3616 4.6499
9.6979 -15.1070 6.1287
10.5928 -15.2570 6.1293
11.5520 -15.4259 6.1299
12.5862 -15.6165 6.1306
13.7087 -15.8320 6.1313
14.9354 -16.0767 6.1321
16.2865 -16.3556 6.1330
17.7870 -16.6752 6.1339
19.4689 -17.0439 6.1350
21.3739 -17.4724 6.1362
23.3164 -17.7916 6.0749
26.0924 -18.5715 6.1392
29.0829 -19.2883 6.1411
21.5956 -13.3266 4.0602
21.7741 -12.4792 3.6083
21.7877 -11.5701 3.1411
21.8008 -10.6962 2.6874
21.7081 -9.8059 2.2345
21.7202 -8.9946 1.8044
21.9565 -8.2922 1.3970
25.4768 -8.7192 1.1341
28.5376 -8.7812 0.7331
28.6036 -7.8359 0.2028
28.5660 -6.8803 -0.3241
28.5798 -5.9541 -0.8476
32.3983 -5.7110 -1.5520
28.6337 -2.3492 -2.9410
28.6469 -1.4609 -3.4709
28.6602 -0.5732 -4.0062
28.6735 0.3164 -4.5482
28.6868 1.2101 -5.0985
28.5396 2.0986 -5.6270
0.0001 -13.7196 6.2793
0.5421 -13.7221 6.2793
1.0860 -13.7296 6.2793
1.6337 -13.7423 6.2793
2.1872 -13.7601 6.2793
2.7485 -13.7833 6.2793
3.3198 -13.8120 6.2793
3.9032 -13.8466 6.2793
4.5015 -13.8873 6.2793
4.9929 -13.5963 6.1269
5.6135 -13.6491 6.1269
6.2572 -13.7093 6.1269
6.4387 -12.8048 5.6944
6.4126 -11.6451 5.1500
6.3492 -10.5797 4.6499
9.1462 -14.0406 6.1284
9.9725 -14.1506 6.1289
10.8539 -14.2740 6.1295
11.7993 -14.4126 6.1301
12.8191 -14.5686 6.1307
13.9264 -14.7448 6.1314
15.1369 -14.9443 6.1322
16.4702 -15.1714 6.1331
17.9509 -15.4313 6.1340
19.6104 -15.7305 6.1351
21.4891 -16.0779 6.1363
23.3992 -16.3163 6.0749
25.8640 -16.7889 6.0749
21.6000 -13.0320 4.5615
21.7785 -12.1883 4.1028
21.7920 -11.2846 3.6260
21.8049 -10.4156 3.1637
21.8175 -9.5771 2.7139
21.7243 -8.7235 2.2639
21.2234 -7.7524 1.7928
24.4085 -8.0549 1.5893
28.5427 -8.4372 1.3149
28.5570 -7.4806 0.7789
28.5710 -6.5415 0.2481
28.7881 -5.6571 -0.2811
34.2271 -5.6308 -0.9622
28.6253 -2.9064 -1.8527
28.6386 -2.0154 -2.3791
28.6519 -1.1268 -2.9089
28.6652 -0.2383 -3.4432
28.7334 0.6537 -3.9913
28.6919 1.5478 -4.5316
28.7054 2.4502 -5.0886
0.0000 -12.9413 6.2793
0.5179 -12.9431 6.2793
1.0374 -12.9485 6.2793
1.5604 -12.9576 6.2793
2.0885 -12.9704 6.2793
2.6236 -12.9870 6.2793
3.1675 -13.0077 6.2793
3.7225 -13.0325 6.2793
4.2905 -13.0616 6.2793
4.7557 -12.7776 6.1269
5.3428 -12.8153 6.1269
5.9503 -12.8582 6.1269
6.4345 -12.6185 5.9902
6.4088 -11.4736 5.4238
6.3867 -10.4891 4.9351
6.5681 -9.9350 4.6499
9.4234 -13.1711 6.1286
10.2383 -13.2580 6.1291
11.1081 -13.3552 6.1296
12.0415 -13.4642 6.1302
13.0491 -13.5867 6.1309
14.1434 -13.7247 6.1316
15.3401 -13.8808 6.1323
16.6583 -14.0581 6.1332
18.1223 -14.2608 6.1341
19.7627 -14.4939 6.1352
21.6194 -14.7641 6.1364
23.7448 -15.0801 6.1377
21.6325 -12.7551 5.0671
21.7828 -11.8987 4.5951
21.7962 -11.0004 4.1088
21.8091 -10.1361 3.6378
21.8216 -9.3020 3.1804
21.8336 -8.4945 2.7345
21.6804 -7.6520 2.2812
23.4307 -7.4468 2.0059
27.4131 -7.7729 1.8187
28.5621 -7.1409 1.3529
28.5761 -6.2042 0.8177
30.2059 -5.5803 0.3032
28.6303 -2.5740 -1.2928
28.6436 -1.6831 -1.8198
28.6569 -0.7942 -2.3493
28.6702 0.0950 -2.8828
28.7384 0.9889 -3.4282
28.6831 1.8831 -3.9653
28.7104 2.7885 -4.5210
0.0000 -12.2321 6.2793
0.4958 -12.2333 6.2793
0.9932 -12.2369 6.2793
1.4935 -12.2429 6.2793
1.9986 -12.2515 6.2793
2.5099 -12.2627 6.2793
3.0292 -12.2765 6.2793
3.5583 -12.2931 6.2793
4.0991 -12.3126 6.2793
4.6538 -12.3352 6.2793
5.0978 -12.0610 6.1269
5.6731 -12.0895 6.1269
6.2692 -12.1218 6.1269
6.4050 -11.3030 5.6961
6.3832 -10.3309 5.1889
6.3022 -9.3914 4.6996
8.9334 -12.2969 6.1283
9.6907 -12.3543 6.1287
10.4956 -12.4182 6.1293
11.3553 -12.4896 6.1298
12.2785 -12.5695 6.1304
13.2754 -12.6591 6.1310
14.3586 -12.7598 6.1317
15.5433 -12.8737 6.1325
16.8486 -13.0028 6.1333
18.2982 -13.1503 6.1342
19.9224 -13.3196 6.1353
21.6031 -13.4181 6.0922
21.7732 -12.5409 5.6002
21.7871 -11.6100 5.0857
21.8004 -10.7171 4.5898
21.8133 -9.8577 4.1104
21.8257 -9.0279 3.6453
21.8377 -8.2241 3.1926
21.8494 -7.4433 2.7506
22.5316 -6.8876 2.3890
26.2028 -7.1152 2.2678
28.5671 -6.8024 1.9248
28.5811 -5.8681 1.3853
33.0656 -5.7210 0.9841
28.6219 -3.1373 -0.2076
28.6353 -2.2427 -0.7348
28.7004 -1.3544 -1.2647
28.6618 -0.4628 -1.7918
28.6751 0.4272 -2.3243
28.6885 1.3204 -2.8615
28.7019 2.2190 -3.4047
28.7155 3.1256 -3.9554
28.4643 4.0053 -4.4737
0.0000 -8.8182 4.7808
0.3621 -8.8188 4.7808
0.9526 -11.5852 6.2793
1.4324 -11.5888 6.2793
1.9163 -11.5938 6.2793
2.4059 -11.6003 6.2793
2.9027 -11.6083 6.2793
3.4084 -11.6180 6.2793
3.9245 -11.6294 6.2793
4.4532 -11.6425 6.2793
4.8794 -11.3849 6.1325
5.4212 -11.3912 6.1269
5.9861 -11.4099 6.1269
6.3660 -11.0720 5.9346
6.3796 -10.1732 5.4417
6.3609 -9.3365 4.9828
6.4444 -8.7348 4.6499
9.2000 -11.5445 6.1284
9.9486 -11.5814 6.1289
10.7447 -11.6224 6.1294
11.5956 -11.6681 6.1300
12.5098 -11.7192 6.1305
13.4974 -11.7763 6.1312
14.5708 -11.8405 6.1319
15.7451 -11.9129 6.1326
17.0391 -11.9950 6.1334
18.4761 -12.0886 6.1344
20.0858 -12.1957 6.1353
21.7776 -12.2470 6.1001
21.7914 -11.3221 5.5751
21.8047 -10.4345 5.0698
21.8174 -9.5799 4.5818
21.8298 -8.7544 4.1090
21.8417 -7.9544 3.6495
21.6883 -7.1228 3.1774
21.7476 -6.3848 2.7487
25.1522 -6.5288 2.6835
28.5722 -6.4648 2.4954
29.2655 -5.6642 1.9979
35.7059 -5.7605 1.7650
28.6268 -2.8062 0.3503
28.6402 -1.9122 -0.1782
28.7053 -1.0235 -0.7076
28.6668 -0.1321 -1.2356
28.6801 0.7586 -1.7672
28.6935 1.6529 -2.3028
28.7069 2.5532 -2.8436
28.7205 3.4619 -3.3912
28.7342 4.3814 -3.9472
0.0000 -8.3662 4.7825
0.3481 -8.3664 4.7825
0.7617 -9.1422 5.2256
1.3761 -10.9871 6.2793
1.8407 -10.9890 6.2793
2.3104 -10.9916 6.2793
2.7866 -10.9948 6.2793
3.2708 -10.9986 6.2793
3.7645 -11.0030 6.2793
4.2694 -11.0082 6.2793
4.7106 -10.8374 6.1786
5.1911 -10.7533 6.1269
5.7278 -10.7606 6.1269
6.2836 -10.7688 6.1269
6.3761 -10.0160 5.6938
6.3576 -9.1897 5.2192
6.3064 -8.4148 4.7741
6.6449 -8.2054 4.6499
9.4566 -10.8287 6.1286
10.1974 -10.8451 6.1291
10.9858 -10.8631 6.1296
11.8288 -10.8832 6.1301
12.7349 -10.9056 6.1307
13.7142 -10.9306 6.1313
14.7789 -10.9586 6.1320
15.9439 -10.9902 6.1327
17.2277 -11.0259 6.1336
18.6533 -11.0665 6.1344
20.2494 -11.1124 6.1351
21.7957 -11.0345 6.0638
21.8089 -10.1523 5.5490
21.8216 -9.3025 5.0525
21.8338 -8.4812 4.5721
21.8457 -7.6851 4.1058
21.6922 -6.8589 3.6243
22.7742 -6.4111 3.3414
26.0908 -6.4607 3.3083
28.5772 -6.1276 3.0652
31.1178 -5.6572 2.7394
28.6318 -2.4757 0.9074
28.5688 -1.5780 0.3766
28.7103 -0.6930 -0.1514
28.6717 0.1980 -0.6801
28.7369 1.0915 -1.2131
28.6984 1.9850 -1.7448
28.7119 2.8869 -2.2833
28.7255 3.7976 -2.8278
28.7393 4.7198 -3.3799
-0.0000 -7.9481 4.7841
0.3351 -7.9480 4.7841
0.7332 -8.6826 5.2264
1.3241 -10.4313 6.2793
1.7709 -10.4306 6.2793
2.2222 -10.4298 6.2793
2.6795 -10.4288 6.2793
3.1440 -10.4276 6.2793
3.6171 -10.4262 6.2793
4.1004 -10.4246 6.2793
4.5953 -10.4227 6.2793
4.9799 -10.1677 6.1269
5.4911 -10.1654 6.1269
6.0194 -10.1629 6.1269
6.3376 -9.8049 5.9128
6.3543 -9.0432 5.4551
6.3381 -8.3236 5.0228
6.3403 -7.7027 4.6499
9.0113 -10.1475 6.1283
9.7035 -10.1435 6.1287
10.4372 -10.1391 6.1292
11.2186 -10.1341 6.1297
12.0545 -10.1285 6.1302
12.9533 -10.1222 6.1308
13.9250 -10.1152 6.1314
14.9817 -10.1074 6.1321
16.1381 -10.0984 6.1329
17.4123 -10.0881 6.1336
18.8268 -10.0761 6.1342
20.4108 -10.0622 6.1348
21.8131 -9.8702 6.0281
21.8257 -9.0252 5.5231
21.8379 -8.2082 5.0351
21.8498 -7.4159 4.5620
21.7172 -6.6014 4.0749
23.8543 -6.4273 3.9843
27.5022 -6.4818 4.0399
28.5822 -5.7905 3.6347
33.6956 -5.7304 3.6318
28.6233 -3.0431 1.9984
28.6367 -2.1453 1.4642
28.6500 -1.2524 0.9332
28.6634 -0.3620 0.4039
28.6002 0.5267 -0.1246
28.7419 1.4229 -0.6560
28.7034 2.3170 -1.1871
28.7169 3.2205 -1.7232
28.7305 4.1333 -2.2646
28.7443 5.0580 -2.8128
28.4932 5.9419 -3.3382
-0.0000 -7.5599 4.7856
0.3231 -7.5596 4.7856
0.7067 -8.2560 5.2272
1.2759 -9.9158 6.2793
1.7061 -9.9129 6.2793
2.1405 -9.9092 6.2793
2.5803 -9.9046 6.2793
3.0267 -9.8991 6.2793
3.4808 -9.8927 6.2793
3.9442 -9.8852 6.2793
4.4181 -9.8768 6.2793
4.7852 -9.6278 6.1269
5.2731 -9.6174 6.1269
5.7765 -9.6057 6.1269
6.2972 -9.5928 6.1269
6.3510 -8.8967 5.6909
6.3351 -8.1860 5.2450
6.2862 -7.5113 4.8215
6.5301 -7.2293 4.6499
9.2551 -9.5067 6.1285
9.9408 -9.4837 6.1289
10.6681 -9.4583 6.1294
11.4430 -9.4301 6.1299
12.2723 -9.3987 6.1304
13.1642 -9.3638 6.1310
14.1288 -9.3248 6.1316
15.1779 -9.2811 6.1322
16.3260 -9.2318 6.1329
17.5906 -9.1756 6.1334
18.9947 -9.1117 6.1340
20.5667 -9.0383 6.1345
21.8299 -8.7477 5.9940
21.8420 -7.9350 5.4983
21.6888 -7.0926 4.9805
21.9314 -6.3985 4.5661
25.0423 -6.4450 4.6915
28.5732 -6.3929 4.7715
29.7295 -5.6712 4.3726
36.4545 -5.7716 4.6493
28.6282 -2.7115 2.5577
28.6416 -1.8147 2.0214
28.6550 -0.9223 1.4891
28.6683 -0.0321 0.9593
28.6816 0.8583 0.4306
28.7469 1.7545 -0.0986
28.7083 2.6491 -0.6291
28.7738 3.5607 -1.1649
28.7355 4.4691 -1.7011
28.7494 5.3964 -2.2453
33.4074 7.3621 -3.2488
29.8936 7.5818 -3.4884
29.0479 8.3535 -3.9652
28.5419 9.2000 -4.4736
28.5572 10.2240 -5.0680
28.5729 11.2796 -5.6794
-0.0000 -7.1981 4.7870
0.3119 -7.1976 4.7870
0.6820 -7.8587 5.2279
1.2311 -9.4359 6.2793
1.6459 -9.4311 6.2793
2.0645 -9.4249 6.2793
2.4881 -9.4172 6.2793
2.9176 -9.4080 6.2793
3.3542 -9.3973 6.2793
3.7992 -9.3849 6.2793
4.2538 -9.3708 6.2793
4.6974 -9.3111 6.2499
5.0716 -9.1106 6.1269
5.5521 -9.0912 6.1269
6.0483 -9.0697 6.1269
6.3129 -8.7022 5.8942
6.3320 -8.0485 5.4672
6.2833 -7.3822 5.0308
6.2489 -6.7990 4.6499
8.8458 -8.9253 6.1282
9.4888 -8.8872 6.1286
10.1685 -8.8450 6.1290
10.8898 -8.7983 6.1295
11.6585 -8.7467 6.1300
12.4815 -8.6895 6.1305
13.3669 -8.6258 6.1311
14.3245 -8.5547 6.1317
15.3660 -8.4750 6.1323
16.5054 -8.3851 6.1328
17.7608 -8.2835 6.1332
19.1545 -8.1679 6.1337
20.7153 -8.0358 6.1343
21.8461 -7.6614 5.9623
21.6928 -6.8248 5.4342
22.9457 -6.4137 5.2497
26.3565 -6.4646 5.4739
28.5783 -6.0523 5.3475
31.8778 -5.7033 5.3241
39.9964 -5.8623 5.8921
47.4754 -5.4437 6.0749
24.5890 -2.0433 2.6774
23.1623 -1.1995 2.0857
22.0626 -0.4555 1.5750
21.3426 0.2221 1.1281
21.3525 0.8851 0.7346
28.6999 2.0828 0.4589
28.7133 2.9818 -0.0702
28.7788 3.8956 -0.6026
28.7406 4.8056 -1.1366
33.0386 7.6722 -2.5542
29.1087 7.7309 -2.8111
28.7977 8.6297 -3.3452
28.8128 9.6399 -3.9228
28.8283 10.6787 -4.5144
28.8443 11.7500 -5.1221
28.8609 12.8584 -5.7484
-0.0000 -6.8599 4.7883
0.3014 -6.8592 4.7884
0.6034 -6.8572 4.7884
1.1892 -8.9877 6.2793
1.5896 -8.9812 6.2793
1.9936 -8.9728 6.2793
2.4020 -8.9625 6.2793
2.8159 -8.9501 6.2793
3.2363 -8.9357 6.2793
3.6643 -8.9190 6.2793
4.1010 -8.9001 6.2793
4.5478 -8.8788 6.2793
4.8844 -8.6400 6.1269
5.3440 -8.6141 6.1269
5.8178 -8.5853 6.1269
6.3075 -8.5536 6.1269
6.3289 -7.9107 5.6898
6.2804 -7.2528 5.2404
6.3026 -6.7371 4.8922
6.4273 -6.3679 4.6499
9.0753 -8.3413 6.1283
9.7126 -8.2853 6.1288
10.3865 -8.2236 6.1292
11.1020 -8.1555 6.1296
11.8647 -8.0803 6.1301
12.6814 -7.9969 6.1307
13.5603 -7.9042 6.1312
14.5108 -7.8009 6.1318
15.5443 -7.6850 6.1322
16.6753 -7.5548 6.1326
17.9211 -7.4077 6.1329
19.3047 -7.2408 6.1336
20.8535 -7.0501 6.1343
21.7246 -6.5647 5.8967
24.0611 -6.4303 6.0015
26.9097 -6.2743 6.1374
28.5834 -5.7107 5.9250
32.8297 -5.4837 6.1391
36.7357 -4.9516 6.1401
28.6247 -2.9472 4.2266
21.7715 -1.5557 2.7972
21.7816 -0.8754 2.3864
21.8517 -0.1984 1.9852
21.8618 0.4800 1.5805
21.8719 1.1593 1.1777
21.3661 1.7977 0.7575
28.7183 3.3154 0.4902
28.7301 4.2235 -0.0387
28.7456 5.1428 -0.5707
36.1030 7.6264 -1.3898
31.5239 7.6948 -1.8072
28.7882 7.9909 -2.1994
28.8029 8.9803 -2.7586
28.8181 9.9951 -3.3288
28.8337 11.0392 -3.9120
28.8498 12.1164 -4.5103
28.8665 13.2314 -5.1260
-0.0000 -6.5427 4.7896
0.2915 -6.5418 4.7896
0.5837 -6.5393 4.7896
1.1499 -8.5676 6.2793
1.5369 -8.5597 6.2793
1.9271 -8.5494 6.2793
2.3215 -8.5368 6.2793
2.7208 -8.5217 6.2793
3.1260 -8.5040 6.2793
3.5382 -8.4837 6.2793
3.9583 -8.4607 6.2793
4.3876 -8.4347 6.2793
4.7198 -8.2186 6.1397
5.1504 -8.1700 6.1269
5.6035 -8.1351 6.1269
6.0711 -8.0965 6.1269
6.3258 -7.7726 5.9129
6.2775 -7.1232 5.4504
6.2998 -6.6135 5.0931
6.2274 -6.0560 4.6970
6.5977 -5.9484 4.6499
9.2945 -7.7720 6.1285
9.9263 -7.6980 6.1289
10.5946 -7.6165 6.1293
11.3042 -7.5267 6.1298
12.0609 -7.4276 6.1303
12.8714 -7.3178 6.1308
13.7435 -7.1959 6.1313
14.6863 -7.0600 6.1316
15.7117 -6.9080 6.1320
16.8336 -6.7374 6.1323
18.0702 -6.5451 6.1329
19.4425 -6.3268 6.1336
20.9779 -6.0774 6.1344
22.7118 -5.7903 6.1352
24.6901 -5.4566 6.1362
26.9745 -5.0649 6.1373
29.6461 -4.5987 6.1382
32.8217 -4.0360 6.1387
21.8361 -1.9918 3.6557
21.7753 -1.3016 3.2257
21.9512 -0.6268 2.8348
21.7955 0.0550 2.4058
21.8656 0.7335 2.0072
21.8757 1.4130 1.6045
21.8859 2.0954 1.2033
28.7233 3.6502 1.0527
28.7369 4.5602 0.5261
28.7507 5.4813 -0.0027
34.2903 7.6488 -0.6380
30.1376 7.7156 -1.1235
28.7934 8.3386 -1.6172
28.8082 9.3321 -2.1698
28.8234 10.3517 -2.7326
28.8391 11.4010 -3.3074
28.9105 12.5081 -3.9037
28.8721 13.6058 -4.5013
-0.0000 -6.3531 4.8742
0.2874 -6.3576 4.8785
0.5762 -6.3622 4.8844
1.1129 -8.1727 6.2793
1.4874 -8.1636 6.2793
1.8647 -8.1517 6.2793
2.2458 -8.1370 6.2793
2.6315 -8.1196 6.2793
3.0226 -8.0991 6.2793
3.4200 -8.0757 6.2793
3.8247 -8.0490 6.2793
4.2377 -8.0190 6.2793
4.6601 -7.9855 6.2793
4.9695 -7.7553 6.1269
5.4037 -7.7151 6.1269
5.8509 -7.6708 6.1269
6.3127 -7.6220 6.1269
6.3092 -7.0317 5.6925
6.2624 -6.4539 5.2655
6.2860 -5.9975 4.9355
6.3315 -5.5970 4.6499
8.9094 -7.2992 6.1282
9.5034 -7.2150 6.1286
10.1296 -7.1226 6.1290
10.7922 -7.0210 6.1294
11.4960 -6.9092 6.1299
12.2465 -6.7859 6.1304
13.0503 -6.6495 6.1308
13.9149 -6.4980 6.1311
14.8499 -6.3295 6.1314
15.8667 -6.1413 6.1318
16.9796 -5.9305 6.1323
18.2052 -5.6927 6.1329
19.5648 -5.4230 6.1336
21.0854 -5.1151 6.1344
22.8013 -4.7608 6.1352
24.7577 -4.3496 6.1362
27.0146 -3.8672 6.1373
28.6213 -3.1797 5.9248
21.7689 -1.7289 4.0764
21.9448 -1.0543 3.6840
21.9550 -0.3704 3.2670
21.9652 0.3115 2.8553
21.8095 0.9855 2.4292
21.8795 1.6680 2.0333
21.8897 2.3509 1.6328
21.3836 2.9673 1.2042
28.7420 4.8982 1.0936
32.6799 7.6776 0.0448
28.8629 7.7346 -0.4948
28.7986 8.6879 -1.0321
28.8135 9.6856 -1.5783
28.8288 10.7099 -2.1336
28.8445 11.7645 -2.6999
28.8354 12.8423 -3.2764
28.8777 13.9820 -3.8737
28.6288 15.0148 -4.4445
-0.0000 -6.3540 5.1063
0.2918 -6.3586 5.1110
0.5849 -6.3633 5.1176
1.0781 -7.8005 6.2793
1.4407 -7.7902 6.2793
1.8059 -7.7770 6.2793
2.1746 -7.7606 6.2793
2.5474 -7.7410 6.2793
2.9252 -7.7182 6.2793
3.3088 -7.6920 6.2793
3.6991 -7.6623 6.2793
4.0969 -7.6288 6.2793
4.5034 -7.5914 6.2793
4.8001 -7.3667 6.1269
5.2166 -7.3220 6.1269
5.6450 -7.2727 6.1269
6.0866 -7.2186 6.1269
6.3062 -6.9004 5.9054
6.2597 -6.3300 5.4669
6.2833 -5.8789 5.1287
6.2733 -5.4345 4.7940
6.4900 -5.2066 4.6499
9.1130 -6.7692 6.1284
9.7015 -6.6678 6.1287
10.3222 -6.5568 6.1291
10.9789 -6.4348 6.1296
11.6766 -6.3008 6.1300
12.4206 -6.1530 6.1304
13.2169 -5.9896 6.1307
14.0738 -5.8086 6.1310
15.0004 -5.6074 6.1313
16.0083 -5.3830 6.1318
17.1105 -5.1316 6.1323
18.3239 -4.8482 6.1329
19.6693 -4.5271 6.1336
21.1728 -4.1609 6.1343
22.8683 -3.7400 6.1352
24.7996 -3.2518 6.1361
27.0245 -2.6798 6.1371
21.7727 -1.4711 4.5116
21.9487 -0.7956 4.1203
21.9589 -0.1124 3.7017
21.9691 0.5690 3.2890
21.9793 1.2504 2.8809
21.8234 1.9191 2.4579
21.8936 2.6079 2.0648
21.8439 3.2878 1.6620
28.7470 5.2381 1.6644
35.6208 7.6336 1.4143
31.1901 7.6998 0.6692
28.7892 8.0612 0.0893
28.8038 9.0393 -0.4437
28.8709 10.0593 -0.9851
28.8342 11.0701 -1.5312
28.8500 12.1301 -2.0890
28.8664 13.2253 -2.6587
28.8833 14.3603 -3.2425
28.9010 15.5403 -3.8427
-0.0000 -6.2167 5.2307
0.2895 -6.2154 5.2307
0.5796 -6.2115 5.2307
1.0452 -7.4487 6.2793
1.3965 -7.4375 6.2793
1.7503 -7.4230 6.2793
2.1073 -7.4051 6.2793
2.4681 -7.3838 6.2793
2.8334 -7.3589 6.2793
3.2041 -7.3303 6.2793
3.5808 -7.2979 6.2793
3.9644 -7.2614 6.2793
4.3559 -7.2208 6.2793
4.7046 -7.0977 6.2111
5.0410 -6.9529 6.1269
5.4519 -6.8995 6.1269
5.8748 -6.8408 6.1269
6.3110 -6.7766 6.1269
6.2569 -6.2054 5.6693
6.2806 -5.7597 5.3229
6.2708 -5.3206 4.9800
6.2391 -4.8985 4.6499
8.7512 -6.3560 6.1281
9.3058 -6.2474 6.1285
9.8887 -6.1286 6.1289
10.5035 -5.9986 6.1293
11.1542 -5.8561 6.1297
11.8452 -5.6995 6.1301
12.5818 -5.5270 6.1303
13.3706 -5.3366 6.1305
14.2192 -5.1259 6.1309
15.1368 -4.8919 6.1313
16.1342 -4.6311 6.1318
17.2244 -4.3390 6.1323
18.4240 -4.0101 6.1329
19.7530 -3.6379 6.1336
21.2372 -3.2137 6.1343
22.9092 -2.7265 6.1351
21.7900 -1.8990 5.3888
21.7766 -1.2115 4.9496
21.9526 -0.5351 4.5595
21.9628 0.1472 4.1393
21.9729 0.8282 3.7256
21.9831 1.5095 3.3171
21.9933 2.1930 2.9129
22.0036 2.8805 2.5118
21.9078 3.5565 2.1027
28.7521 5.5804 2.2390
33.8584 7.6600 2.0241
29.8218 7.7203 1.2426
28.7944 8.4113 0.6760
28.8612 9.4101 0.1489
28.7473 10.3713 -0.3833
28.7634 11.4026 -0.9222
28.7786 12.4649 -1.4700
28.8720 13.5994 -2.0340
28.8890 14.7412 -2.6070
28.9068 15.9287 -3.1951
-0.0000 -6.1864 5.4478
0.2929 -6.1911 5.4532
0.5871 -6.1957 5.4612
0.9444 -6.6267 5.8482
1.3548 -7.1033 6.2793
1.6977 -7.0877 6.2793
2.0436 -7.0685 6.2793
2.3930 -7.0456 6.2793
2.7466 -7.0189 6.2793
3.1050 -6.9883 6.2793
3.4690 -6.9536 6.2793
3.8394 -6.9146 6.2793
4.2169 -6.8711 6.2793
4.6024 -6.8229 6.2793
4.8798 -6.6110 6.1321
5.2703 -6.5484 6.1269
5.6759 -6.4859 6.1269
6.0935 -6.4175 6.1269
6.2864 -6.1114 5.9034
6.2780 -5.6396 5.5185
6.2338 -5.1773 5.1389
6.2593 -4.8064 4.8467
6.3851 -4.5313 4.6499
8.9384 -5.8572 6.1283
9.4874 -5.7322 6.1286
10.0645 -5.5958 6.1290
10.6731 -5.4466 6.1294
11.3171 -5.2832 6.1297
12.0008 -5.1037 6.1299
12.7297 -4.9064 6.1301
13.5103 -4.6889 6.1305
14.3498 -4.4484 6.1309
15.2571 -4.1815 6.1313
16.2426 -3.8842 6.1318
17.3193 -3.5515 6.1323
18.5030 -3.1774 6.1329
19.8134 -2.7543 6.1336
21.2754 -2.2726 6.1343
21.7703 -1.6338 5.8272
21.9463 -0.9571 5.4321
21.9565 -0.2727 5.0022
21.9667 0.4089 4.5804
21.9769 1.0894 4.1656
21.9870 1.7707 3.7567
21.9972 2.4544 3.3526
22.0075 3.1425 2.9523
22.0179 3.8367 2.5546
36.9519 7.6137 3.6211
32.2508 7.6840 2.5804
28.7853 7.8003 1.7855
28.7997 8.7642 1.2672
28.8144 9.7496 0.7456
28.8295 10.7598 0.2193
28.8973 11.8197 -0.3139
28.7841 12.8349 -0.8517
28.8776 13.9765 -1.4044
28.8948 15.1251 -1.9665
28.9126 16.3202 -2.5425
-0.0001 -6.1869 5.7006
0.2975 -6.1916 5.7065
0.5966 -6.1963 5.7154
0.9845 -6.7986 6.2793
1.3151 -6.7859 6.2793
1.6478 -6.7694 6.2793
1.9832 -6.7491 6.2793
2.3218 -6.7248 6.2793
2.6642 -6.6966 6.2793
3.0111 -6.6642 6.2793
3.3631 -6.6275 6.2793
3.7209 -6.5862 6.2793
4.0853 -6.5403 6.2793
4.4570 -6.4895 6.2793
4.7252 -6.2854 6.1343
5.0991 -6.2173 6.1269
5.4885 -6.1515 6.1269
5.8888 -6.0797 6.1269
6.3012 -6.0013 6.1269
6.2752 -5.5187 5.7155
6.2312 -5.0624 5.3266
6.2568 -4.6956 5.0279
6.1877 -4.2875 4.6808
6.5227 -4.1685 4.6499
9.1143 -5.3637 6.1284
9.6573 -5.2223 6.1287
10.2282 -5.0679 6.1291
10.8301 -4.8993 6.1294
11.4668 -4.7147 6.1296
12.1428 -4.5124 6.1298
12.8635 -4.2902 6.1301
13.6349 -4.0455 6.1305
14.4641 -3.7751 6.1309
15.3596 -3.4752 6.1313
16.3317 -3.1415 6.1318
17.3930 -2.7685 6.1323
18.5587 -2.3494 6.1329
19.8478 -1.8759 6.1335
21.2843 -1.3376 6.1342
21.9502 -0.6912 5.8809
21.9605 -0.0079 5.4488
21.9706 0.6729 5.0253
21.9808 1.3530 4.6095
21.9910 2.0342 4.2002
22.0012 2.7182 3.7962
22.0115 3.4068 3.3966
22.0219 4.1019 3.0002
21.7513 4.7441 2.5729
30.5140 7.6401 3.0640
28.7906 8.1531 2.3771
28.8050 9.1201 1.8637
28.8198 10.1092 1.3479
28.8350 11.1237 0.8283
28.7737 12.1348 0.3025
28.8666 13.2435 -0.2286
28.9355 14.3829 -0.7706
28.9005 15.5124 -1.3203
33.1540 19.1633 -2.1600
-0.0001 -6.1873 5.9642
0.3024 -6.1921 5.9705
0.6064 -6.1970 5.9804
0.9563 -6.4972 6.2793
1.2773 -6.4838 6.2793
1.6002 -6.4665 6.2793
1.9256 -6.4452 6.2793
2.2540 -6.4198 6.2793
2.5859 -6.3902 6.2793
2.9219 -6.3562 6.2793
3.2626 -6.3178 6.2793
3.6086 -6.2747 6.2793
3.9606 -6.2267 6.2793
4.3193 -6.1736 6.2793
4.6854 -6.1151 6.2793
4.9371 -5.9041 6.1269
5.3114 -5.8356 6.1269
5.6956 -5.7608 6.1269
6.0908 -5.6794 6.1269
6.2725 -5.3967 5.9143
6.2286 -4.9465 5.5159
6.2543 -4.5839 5.2107
6.2119 -4.1991 4.8760
6.2802 -3.9107 4.6499
8.7663 -5.0200 6.1281
9.2784 -4.8746 6.1285
9.8152 -4.7164 6.1288
10.3793 -4.5439 6.1291
10.9738 -4.3556 6.1293
11.6027 -4.1499 6.1295
12.2705 -3.9247 6.1298
12.9819 -3.6775 6.1302
13.7429 -3.4055 6.1305
14.5605 -3.1051 6.1309
15.4427 -2.7725 6.1313
16.3997 -2.4026 6.1318
17.4434 -1.9896 6.1323
18.5886 -1.5261 6.1329
19.8535 -1.0031 6.1335
21.2609 -0.4092 6.1342
21.9645 0.2596 5.8998
21.9746 0.9396 5.4747
21.9848 1.6192 5.0579
21.9949 2.3003 4.6481
22.0052 2.9845 4.2442
22.0155 3.6737 3.8453
21.8595 4.3368 3.4242
21.8997 5.0431 3.0392
29.4198 7.7263 3.5601
28.7959 8.5094 2.9746
28.1573 9.2648 2.4103
27.6231 10.0357 1.8746
27.0673 10.7848 1.3546
26.4910 11.5119 0.8503
28.8723 13.6215 0.4031
28.9413 14.7678 -0.1278
28.9064 15.9036 -0.6677
32.4068 19.1744 -1.3658
-0.0001 -6.2273 6.2793
0.3092 -6.2254 6.2793
0.6188 -6.2194 6.2793
0.9294 -6.2095 6.2793
1.2412 -6.1956 6.2793
1.5549 -6.1776 6.2793
1.8708 -6.1554 6.2793
2.1895 -6.1290 6.2793
2.5113 -6.0983 6.2793
2.8370 -6.0630 6.2793
3.1669 -6.0231 6.2793
3.5017 -5.9784 6.2793
3.8420 -5.9286 6.2793
4.1884 -5.8736 6.2793
4.5417 -5.8130 6.2793
4.7835 -5.6072 6.1269
5.1437 -5.5363 6.1269
5.5129 -5.4591 6.1269
5.8920 -5.3751 6.1269
6.2820 -5.2839 6.1269
6.2260 -4.8294 5.7070
6.2517 -4.4711 5.3954
6.2095 -4.0912 5.0529
6.2362 -3.7803 4.7909
6.4047 -3.5651 4.6499
8.9245 -4.5499 6.1283
9.4303 -4.3887 6.1286
9.9602 -4.2135 6.1289
10.5169 -4.0228 6.1290
11.1036 -3.8149 6.1292
11.7242 -3.5880 6.1295
12.3826 -3.3398 6.1298
13.0837 -3.0675 6.1302
13.8331 -2.7682 6.1305
14.6375 -2.4382 6.1309
15.5049 -2.0729 6.1313
16.4447 -1.6673 6.1318
17.4686 -1.2149 6.1323
18.5905 -0.7078 6.1328
19.8278 -0.1364 6.1334
21.2023 0.5115 6.1341
21.9786 1.2091 5.9291
21.9888 1.8883 5.5111
21.9990 2.5693 5.1009
22.0092 3.2538 4.6972
22.0195 3.9436 4.2990
21.8635 4.6056 3.8758
31.7086 7.6921 5.0570
28.7870 7.9162 4.0827
28.8013 8.8696 3.5786
25.7858 8.8081 2.7519
25.3278 9.5227 2.2588
24.8379 10.2146 1.7783
24.3278 10.8872 1.3115
23.7984 11.5404 0.8585
28.8948 15.1296 0.5210
28.9123 16.2990 -0.0078
31.5726 19.1171 -0.5966
-0.0001 -5.9529 6.2793
0.3006 -5.9509 6.2793
0.6017 -5.9447 6.2793
0.9037 -5.9345 6.2793
1.2068 -5.9201 6.2793
1.5116 -5.9015 6.2793
1.8184 -5.8786 6.2793
2.1278 -5.8514 6.2793
2.4401 -5.8196 6.2793
2.7559 -5.7832 6.2793
3.0757 -5.7421 6.2793
3.3999 -5.6960 6.2793
3.7291 -5.6447 6.2793
4.0639 -5.5880 6.2793
4.4049 -5.5257 6.2793
4.7039 -5.4012 6.2147
4.9844 -5.2522 6.1269
5.3395 -5.1730 6.1269
5.7036 -5.0869 6.1269
6.0776 -4.9934 6.1269
6.2577 -4.7371 5.9328
6.2492 -4.3570 5.5820
6.2070 -3.9821 5.2317
6.2339 -3.6746 4.9646
6.1728 -3.3360 4.6499
6.5202 -3.2216 4.6499
9.0705 -4.0824 6.1283
9.5693 -3.9054 6.1286
10.0917 -3.7131 6.1287
10.6406 -3.5041 6.1290
11.2189 -3.2765 6.1292
11.8301 -3.0284 6.1295
12.4781 -2.7571 6.1298
13.1676 -2.4600 6.1302
13.9040 -2.1336 6.1305
14.6937 -1.7741 6.1309
15.5443 -1.3768 6.1313
16.4648 -0.9360 6.1318
17.4663 -0.4449 6.1322
18.5619 0.1047 6.1328
19.7683 0.7230 6.1333
21.1057 1.4228 6.1340
21.9929 2.1607 5.9699
22.0030 2.8415 5.5592
22.0133 3.5263 5.1556
22.0236 4.2167 4.7582
21.8676 4.8776 4.3329
30.2464 7.7139 5.4575
28.7924 8.2781 4.6899
27.5279 8.8243 4.0040
25.0133 8.8619 3.2039
23.3777 9.0892 2.5891
22.9274 9.7259 2.1414
22.4713 10.3511 1.7073
21.9962 10.9590 1.2855
21.5119 11.5542 0.8765
33.1843 19.1628 0.7574
31.1686 19.3082 0.1442
-0.0001 -5.6900 6.2793
0.2925 -5.6879 6.2793
0.5854 -5.6816 6.2793
0.8790 -5.6711 6.2793
1.1738 -5.6562 6.2793
1.4701 -5.6371 6.2793
1.7683 -5.6136 6.2793
2.0688 -5.5856 6.2793
2.3720 -5.5530 6.2793
2.6784 -5.5157 6.2793
2.9885 -5.4734 6.2793
3.3026 -5.4262 6.2793
3.6213 -5.3736 6.2793
3.9451 -5.3156 6.2793
4.2746 -5.2518 6.2793
4.6104 -5.1820 6.2793
4.8329 -4.9820 6.1269
5.1747 -4.9010 6.1269
5.5247 -4.8132 6.1269
5.8837 -4.7179 6.1269
6.2524 -4.6148 6.1269
6.2123 -4.2183 5.7392
6.2045 -3.8718 5.4127
6.2315 -3.5676 5.1403
6.2246 -3.2618 4.8608
6.2839 -3.0047 4.6499
8.7329 -3.7952 6.1281
9.2035 -3.6170 6.1284
9.6948 -3.4239 6.1285
10.2094 -3.2146 6.1287
10.7497 -2.9873 6.1290
11.3185 -2.7401 6.1292
11.9193 -2.4707 6.1295
12.5558 -2.1766 6.1298
13.2324 -1.8548 6.1302
13.9543 -1.5017 6.1305
14.7275 -1.1132 6.1309
15.5593 -0.6844 6.1313
16.4582 -0.2092 6.1317
17.4346 0.3193 6.1322
18.5009 0.9099 6.1327
19.6725 1.5733 6.1332
20.9685 2.3227 6.1339
22.0072 3.1174 6.0235
22.0174 3.8024 5.6201
21.8614 4.4596 5.1840
27.9776 6.5919 6.1348
28.8966 7.7341 5.8271
28.7979 8.6447 5.3050
26.5193 8.8394 4.4267
24.1713 8.8744 3.6192
22.1625 8.9045 2.9387
21.4796 9.3936 2.4804
22.0105 10.4312 2.1643
22.0230 11.2689 1.7861
22.0360 12.1370 1.4048
22.0494 13.0394 1.0191
30.3104 19.2058 0.8624
-0.0001 -5.4376 6.2793
0.2846 -5.4354 6.2793
0.5696 -5.4290 6.2793
0.8554 -5.4182 6.2793
1.1421 -5.4030 6.2793
1.4303 -5.3835 6.2793
1.7202 -5.3594 6.2793
2.0122 -5.3308 6.2793
2.3067 -5.2975 6.2793
2.6042 -5.2593 6.2793
2.9049 -5.2162 6.2793
3.2094 -5.1679 6.2793
3.5181 -5.1143 6.2793
3.8315 -5.0551 6.2793
4.1501 -4.9901 6.2793
4.4744 -4.9190 6.2793
4.7140 -4.7498 6.1604
5.0177 -4.6418 6.1269
5.3544 -4.5526 6.1269
5.6993 -4.4560 6.1269
6.0530 -4.3515 6.1269
6.2097 -4.1020 5.9296
6.2363 -3.7807 5.6269
6.2290 -3.4592 5.3184
6.2223 -3.1570 5.0332
6.1554 -2.8438 4.7221
6.3857 -2.6747 4.6499
8.8600 -3.3463 6.1281
9.3225 -3.1529 6.1283
9.8064 -2.9441 6.1285
10.3123 -2.7177 6.1287
10.8431 -2.4721 6.1290
11.4016 -2.2054 6.1293
11.9909 -1.9150 6.1295
12.6145 -1.5983 6.1298
13.2768 -1.2522 6.1302
13.9825 -0.8729 6.1305
14.7375 -0.4560 6.1309
15.5484 0.0035 6.1312
16.4232 0.5119 6.1317
17.3716 1.0765 6.1321
18.4053 1.7064 6.1326
19.5383 2.4125 6.1331
20.7884 3.2085 6.1337
22.0216 4.0825 6.0913
21.8655 4.7381 5.6523
25.4844 6.3287 6.1342
27.4880 7.7085 6.1344
28.8035 9.0166 5.9290
25.5694 8.8536 4.8248
23.3735 8.8864 4.0127
21.9528 9.1092 3.3972
22.1094 9.9633 3.0482
22.1217 10.7818 2.6766
22.0275 11.5720 2.2926
22.0406 12.4451 1.9192
22.0541 13.3530 1.5424
29.6540 19.2156 1.5600
-0.0001 -5.1948 6.2793
0.2771 -5.1926 6.2793
0.5545 -5.1860 6.2793
0.8326 -5.1750 6.2793
1.1117 -5.1596 6.2793
1.3920 -5.1397 6.2793
1.6740 -5.1152 6.2793
1.9578 -5.0860 6.2793
2.2440 -5.0521 6.2793
2.5329 -5.0132 6.2793
2.8248 -4.9694 6.2793
3.1201 -4.9203 6.2793
3.4193 -4.8658 6.2793
3.7227 -4.8056 6.2793
4.0309 -4.7396 6.2793
4.3443 -4.6675 6.2793
4.6634 -4.5889 6.2793
4.8678 -4.3944 6.1269
5.1920 -4.3040 6.1269
5.5236 -4.2063 6.1269
5.8632 -4.1008 6.1269
6.2115 -3.9869 6.1269
6.2337 -3.6667 5.8139
6.2266 -3.3492 5.4990
6.2199 -3.0507 5.2081
6.1794 -2.7535 4.9111
6.1586 -2.4813 4.6499
6.4776 -2.3457 4.6499
8.9736 -2.8986 6.1281
9.4286 -2.6905 6.1283
9.9033 -2.4656 6.1285
10.3997 -2.2223 6.1288
10.9201 -1.9586 6.1290
11.4671 -1.6724 6.1293
12.0437 -1.3613 6.1295
12.6532 -1.0225 6.1298
13.2997 -0.6525 6.1301
13.9875 -0.2477 6.1305
14.7222 0.1967 6.1308
15.5099 0.6858 6.1312
16.3581 1.2260 6.1316
17.2756 1.8250 6.1320
18.2732 2.4919 6.1325
19.3638 3.2380 6.1330
20.5635 4.0770 6.1335
21.8905 5.0258 6.1337
23.3703 6.1061 6.1338
25.0356 7.3454 6.1338
26.9274 8.7806 6.1340
24.6723 8.8670 5.2007
22.6158 8.8977 4.3864
21.9351 9.3949 3.8876
22.1139 10.2640 3.5514
22.1262 11.0866 3.1861
22.1389 11.9373 2.8205
21.9848 12.7229 2.4349
22.0589 13.6715 2.0738
21.8461 14.4744 1.6850
-0.0001 -4.9609 6.2793
0.2698 -4.9587 6.2793
0.5400 -4.9520 6.2793
0.8107 -4.9409 6.2793
1.0824 -4.9252 6.2793
1.3552 -4.9049 6.2793
1.6295 -4.8801 6.2793
1.9055 -4.8504 6.2793
2.1837 -4.8160 6.2793
2.4643 -4.7766 6.2793
2.7478 -4.7321 6.2793
3.0343 -4.6823 6.2793
3.3243 -4.6271 6.2793
3.6183 -4.5662 6.2793
3.9166 -4.4994 6.2793
4.2196 -4.4265 6.2793
4.5278 -4.3471 6.2793
4.7279 -4.1617 6.1316
5.0367 -4.0664 6.1269
5.3558 -3.9679 6.1269
5.6820 -3.8617 6.1269
6.0162 -3.7471 6.1269
6.2311 -3.5509 6.0038
6.2241 -3.2376 5.6824
6.1833 -2.9267 5.3561
6.1771 -2.6496 5.0825
6.2053 -2.3995 4.8545
6.2462 -2.1631 4.6499
8.6445 -2.6588 6.1279
9.0734 -2.4521 6.1281
9.5196 -2.2291 6.1283
9.9848 -1.9884 6.1285
10.4708 -1.7282 6.1288
10.9798 -1.4467 6.1290
11.5142 -1.1415 6.1293
12.0768 -0.8101 6.1295
12.6708 -0.4496 6.1298
13.2998 -0.0566 6.1301
13.9679 0.3730 6.1304
14.6803 0.8437 6.1307
15.4425 1.3611 6.1311
16.2613 1.9315 6.1315
17.1450 2.5627 6.1319
18.1032 3.2641 6.1323
19.1475 4.0468 6.1328
20.2923 4.9248 6.1334
21.5535 5.9146 6.1334
22.9543 7.0380 6.1334
24.5231 8.3218 6.1335
23.8229 8.8796 5.5567
22.0297 8.9635 4.7714
21.9396 9.6948 4.3897
22.1185 10.5697 4.0630
22.1309 11.3964 3.7042
22.1436 12.2518 3.3459
22.1569 13.1394 2.9871
22.1707 14.0632 2.6268
22.0176 14.9142 2.2469
-0.0001 -4.7352 6.2793
0.2628 -4.7330 6.2793
0.5259 -4.7262 6.2793
0.7896 -4.7149 6.2793
1.0541 -4.6990 6.2793
1.3196 -4.6785 6.2793
1.5866 -4.6533 6.2793
1.8551 -4.6233 6.2793
2.1256 -4.5885 6.2793
2.3983 -4.5486 6.2793
2.6736 -4.5036 6.2793
2.9517 -4.4533 6.2793
3.2330 -4.3975 6.2793
3.5179 -4.3360 6.2793
3.8068 -4.2686 6.2793
4.0999 -4.1950 6.2793
4.3978 -4.1150 6.2793
4.6937 -4.0221 6.2698
4.8880 -3.8388 6.1269
5.1952 -3.7398 6.1269
5.5089 -3.6331 6.1269
5.8297 -3.5181 6.1269
6.1583 -3.3945 6.1269
6.2215 -3.1241 5.8689
6.1809 -2.8176 5.5357
6.1747 -2.5438 5.2568
6.2030 -2.2963 5.0249
6.1370 -2.0266 4.7347
6.3237 -1.8456 4.6499
8.7385 -2.2272 6.1279
9.1586 -2.0066 6.1281
9.5953 -1.7689 6.1283
10.0501 -1.5126 6.1285
10.5247 -1.2359 6.1288
11.0213 -0.9368 6.1290
11.5419 -0.6131 6.1292
12.0892 -0.2620 6.1295
12.6661 0.1195 6.1298
13.2759 0.5348 6.1301
13.9226 0.9880 6.1304
14.6104 1.4838 6.1307
15.3448 2.0277 6.1310
16.1317 2.6263 6.1314
16.9785 3.2873 6.1318
17.8938 4.0201 6.1322
18.8881 4.8358 6.1327
19.9738 5.7480 6.1331
21.1646 6.7731 6.1331
22.4813 7.9321 6.1331
23.0167 8.8917 5.8946
21.9331 9.2244 5.2556
22.1111 10.0761 4.9381
22.1232 10.8809 4.5837
22.1356 11.7117 4.2315
22.1484 12.5718 3.8807
22.1618 13.4647 3.5303
22.1756 14.3944 3.1794
22.0484 15.2672 2.8090
-0.0001 -4.5171 6.2793
0.2560 -4.5148 6.2793
0.5124 -4.5079 6.2793
0.7692 -4.4965 6.2793
1.0268 -4.4805 6.2793
1.2853 -4.4598 6.2793
1.5451 -4.4343 6.2793
1.8064 -4.4040 6.2793
2.0695 -4.3688 6.2793
2.3346 -4.3286 6.2793
2.6020 -4.2832 6.2793
2.8721 -4.2325 6.2793
3.1450 -4.1762 6.2793
3.4212 -4.1143 6.2793
3.7010 -4.0464 6.2793
3.9847 -3.9724 6.2793
4.2728 -3.8919 6.2793
4.5655 -3.8047 6.2793
4.7452 -3.6204 6.1269
5.0412 -3.5211 6.1269
5.3431 -3.4141 6.1269
5.6513 -3.2990 6.1269
5.9665 -3.1753 6.1269
6.2189 -3.0085 6.0586
6.1784 -2.7065 5.7184
6.2064 -2.4497 5.4641
6.2006 -2.1912 5.1983
6.1611 -1.9336 4.9231
6.1295 -1.6909 4.6722
6.3907 -1.5288 4.6499
8.8180 -1.7966 6.1279
9.2286 -1.5622 6.1281
9.6549 -1.3100 6.1283
10.0984 -1.0384 6.1285
10.5607 -0.7456 6.1287
11.0436 -0.4295 6.1290
11.5492 -0.0877 6.1292
12.0799 0.2824 6.1295
12.6382 0.6839 6.1297
13.2272 1.1204 6.1300
13.8503 1.5959 6.1303
14.5116 2.1152 6.1306
15.2157 2.6838 6.1309
15.9681 3.3083 6.1313
16.7751 3.9963 6.1316
17.6444 4.7570 6.1320
18.5849 5.6014 6.1325
19.6073 6.5429 6.1328
20.7237 7.5968 6.1328
21.9514 8.7838 6.1327
21.9372 9.5319 5.7713
22.1158 10.3894 5.4629
22.1279 11.1980 5.1143
22.1404 12.0331 4.7689
22.1533 12.8979 4.4256
22.1667 13.7962 4.0838
22.1807 14.7319 3.7426
22.0277 15.5910 3.3753
-0.0001 -4.3059 6.2793
0.2494 -4.3036 6.2793
0.4992 -4.2967 6.2793
0.7494 -4.2851 6.2793
1.0003 -4.2690 6.2793
1.2521 -4.2481 6.2793
1.5050 -4.2224 6.2793
1.7593 -4.1919 6.2793
2.0152 -4.1565 6.2793
2.2730 -4.1160 6.2793
2.5329 -4.0703 6.2793
2.7952 -4.0192 6.2793
3.0601 -3.9627 6.2793
3.3280 -3.9004 6.2793
3.5991 -3.8322 6.2793
3.8738 -3.7579 6.2793
4.1524 -3.6771 6.2793
4.4352 -3.5897 6.2793
4.6980 -3.4770 6.2466
4.8933 -3.3110 6.1269
5.1839 -3.2040 6.1269
5.4803 -3.0890 6.1269
5.7828 -2.9655 6.1269
6.0920 -2.8330 6.1269
6.1759 -2.5933 5.9046
6.2039 -2.3394 5.6458
6.1982 -2.0841 5.3751
6.1587 -1.8300 5.0944
6.1535 -1.5971 4.8594
6.1631 -1.3759 4.6499
6.4468 -1.2126 4.6499
8.8824 -1.3671 6.1279
9.2827 -1.1192 6.1281
9.6978 -0.8529 6.1283
10.1290 -0.5664 6.1285
10.5779 -0.2579 6.1287
11.0461 0.0746 6.1289
11.5354 0.4337 6.1292
12.0479 0.8219 6.1294
12.5860 1.2425 6.1297
13.1524 1.6988 6.1299
13.7502 2.1951 6.1302
14.3828 2.7361 6.1305
15.0544 3.3272 6.1308
15.7696 3.9748 6.1311
16.5340 4.6866 6.1315
17.3542 5.4714 6.1318
18.2377 6.3400 6.1322
19.1934 7.3049 6.1325
20.2315 8.3810 6.1324
21.3665 9.5878 6.1324
22.1206 10.7092 5.9982
22.1327 11.5215 5.6557
22.1453 12.3609 5.3171
22.1583 13.2307 4.9817
22.1718 14.1344 4.6486
22.1858 15.0763 4.3171
22.0452 15.9485 3.9586
-0.0001 -4.1011 6.2793
0.2431 -4.0988 6.2793
0.4865 -4.0918 6.2793
0.7303 -4.0802 6.2793
0.9747 -4.0640 6.2793
1.2199 -4.0430 6.2793
1.4662 -4.0172 6.2793
1.7137 -3.9865 6.2793
1.9627 -3.9509 6.2793
2.2134 -3.9101 6.2793
2.4660 -3.8642 6.2793
2.7208 -3.8130 6.2793
2.9780 -3.7562 6.2793
3.2378 -3.6937 6.2793
3.5006 -3.6253 6.2793
3.7667 -3.5509 6.2793
4.0362 -3.4700 6.2793
4.3096 -3.3824 6.2793
4.5872 -3.2879 6.2793
4.7510 -3.1088 6.1269
5.0309 -3.0020 6.1269
5.3160 -2.8872 6.1269
5.6066 -2.7642 6.1269
5.9031 -2.6323 6.1269
6.2060 -2.4911 6.1269
6.2014 -2.2269 5.8312
6.1958 -1.9749 5.5554
6.1564 -1.7243 5.2692
6.1852 -1.5022 5.0578
6.1801 -1.2790 4.8323
6.2151 -1.0697 4.6499
8.5547 -1.1824 6.1278
8.9311 -0.9390 6.1279
9.3202 -0.6780 6.1281
9.7232 -0.3979 6.1283
10.1412 -0.0971 6.1285
10.5756 0.2264 6.1287
11.0278 0.5747 6.1289
11.4995 0.9501 6.1291
11.9925 1.3555 6.1294
12.5089 1.7938 6.1296
13.0510 2.2685 6.1298
13.6215 2.7839 6.1301
14.2233 3.3444 6.1304
14.8601 3.9555 6.1307
15.5358 4.6234 6.1310
16.2551 5.3554 6.1313
17.0233 6.1601 6.1316
17.8469 7.0477 6.1320
18.7329 8.0300 6.1322
19.6897 9.1212 6.1321
20.7288 10.3392 6.1320
21.8638 11.7050 6.1319
22.1503 12.6958 5.8772
22.1633 13.5706 5.5497
22.1769 14.4800 5.2256
22.0235 15.3116 4.8671
27.7543 20.5222 5.7301
-0.0001 -3.9023 6.2793
0.2369 -3.8999 6.2793
0.4741 -3.8929 6.2793
0.7117 -3.8813 6.2793
0.9498 -3.8650 6.2793
1.1887 -3.8439 6.2793
1.4285 -3.8180 6.2793
1.6694 -3.7872 6.2793
1.9117 -3.7514 6.2793
2.1556 -3.7106 6.2793
2.4011 -3.6645 6.2793
2.6487 -3.6131 6.2793
2.8984 -3.5562 6.2793
3.1506 -3.4937 6.2793
3.4054 -3.4252 6.2793
3.6631 -3.3507 6.2793
3.9241 -3.2698 6.2793
4.1884 -3.1823 6.2793
4.4565 -3.0880 6.2793
4.6992 -2.9678 6.2403
4.8836 -2.8074 6.1269
5.1579 -2.6931 6.1269
5.4372 -2.5707 6.1269
5.7217 -2.4395 6.1269
6.0119 -2.2993 6.1269
6.1988 -2.1120 6.0206
6.1593 -1.8531 5.7081
6.1539 -1.6163 5.4477
6.1828 -1.3963 5.2331
6.1778 -1.1755 5.0038
6.1730 -0.9616 4.7882
6.2558 -0.7643 4.6499
8.5981 -0.7684 6.1278
8.9634 -0.5128 6.1279
9.3406 -0.2391 6.1281
9.7306 0.0542 6.1283
10.1343 0.3688 6.1285
10.5531 0.7066 6.1287
10.9882 1.0697 6.1289
11.4409 1.4605 6.1291
11.9130 1.8817 6.1293
12.4060 2.3363 6.1295
12.9221 2.8278 6.1297
13.4635 3.3601 6.1300
14.0327 3.9378 6.1302
14.6326 4.5661 6.1305
15.2666 5.2510 6.1308
15.9383 5.9994 6.1311
16.6522 6.8195 6.1314
17.4134 7.7208 6.1317
18.2273 8.7143 6.1319
19.1003 9.8131 6.1318
20.0416 11.0335 6.1317
21.0613 12.3947 6.1315
22.1685 13.9183 6.1306
22.1822 14.8334 5.8157
22.0288 15.6687 5.4629
26.2079 19.8070 6.1314
-0.0001 -3.7089 6.2793
0.2309 -3.7066 6.2793
0.4621 -3.6996 6.2793
0.6936 -3.6879 6.2793
0.9256 -3.6715 6.2793
1.1583 -3.6504 6.2793
1.3918 -3.6244 6.2793
1.6264 -3.5935 6.2793
1.8622 -3.5577 6.2793
2.0994 -3.5168 6.2793
2.3382 -3.4707 6.2793
2.5788 -3.4193 6.2793
2.8213 -3.3623 6.2793
3.0660 -3.2997 6.2793
3.3132 -3.2313 6.2793
3.5629 -3.1569 6.2793
3.8155 -3.0761 6.2793
4.0712 -2.9888 6.2793
4.3302 -2.8947 6.2793
4.5928 -2.7935 6.2793
4.7414 -2.6197 6.1269
5.0055 -2.5060 6.1269
5.2740 -2.3843 6.1269
5.5472 -2.2541 6.1269
5.8255 -2.1150 6.1269
6.1091 -1.9665 6.1269
6.1567 -1.7396 5.8955
6.1854 -1.5141 5.6614
6.1803 -1.2880 5.4124
6.1755 -1.0697 5.1792
6.1707 -0.8580 4.9600
6.1061 -0.6458 4.7074
6.2848 -0.4601 4.6499
8.6255 -0.3563 6.1277
8.9789 -0.0890 6.1279
9.3433 0.1969 6.1281
9.7192 0.5027 6.1282
10.1077 0.8303 6.1284
10.5098 1.1815 6.1286
10.9265 1.5584 6.1288
11.3590 1.9634 6.1290
11.8087 2.3990 6.1292
12.2769 2.8683 6.1294
12.7655 3.3746 6.1296
13.2761 3.9217 6.1299
13.8108 4.5140 6.1301
14.3719 5.1565 6.1303
14.9621 5.8548 6.1306
15.5843 6.6155 6.1309
16.2418 7.4462 6.1312
16.9386 8.3556 6.1315
17.6787 9.3538 6.1316
18.4667 10.4526 6.1315
19.3092 11.6667 6.1313
20.2140 13.0125 6.1312
21.1887 14.5114 6.1310
22.0850 16.0713 6.0871
23.3917 18.0699 6.1309
-0.0001 -3.5206 6.2793
0.2250 -3.5183 6.2793
0.4504 -3.5113 6.2793
0.6760 -3.4996 6.2793
0.9020 -3.4832 6.2793
1.1287 -3.4620 6.2793
1.3562 -3.4360 6.2793
1.5846 -3.4051 6.2793
1.8141 -3.3693 6.2793
2.0448 -3.3284 6.2793
2.2770 -3.2823 6.2793
2.5108 -3.2309 6.2793
2.7464 -3.1740 6.2793
2.9839 -3.1115 6.2793
3.2236 -3.0432 6.2793
3.4657 -2.9689 6.2793
3.7103 -2.8884 6.2793
3.9576 -2.8014 6.2793
4.2080 -2.7077 6.2793
4.4615 -2.6070 6.2793
4.6972 -2.4876 6.2509
4.8584 -2.3253 6.1269
5.1167 -2.2046 6.1269
5.3791 -2.0755 6.1269
5.6459 -1.9376 6.1269
5.9175 -1.7906 6.1269
6.1941 -1.6339 6.1269
6.1829 -1.4004 5.8495
6.1779 -1.1771 5.5961
6.1730 -0.9613 5.3588
6.1683 -0.7519 5.1361
6.1299 -0.5451 4.8994
6.0993 -0.3456 4.6825
6.3019 -0.1575 4.6499
8.6362 0.0533 6.1277
8.9770 0.3318 6.1279
9.3276 0.6291 6.1280
9.6886 0.9468 6.1282
10.0609 1.2865 6.1284
10.4451 1.6501 6.1285
10.8423 2.0396 6.1287
11.2533 2.4573 6.1289
11.6792 2.9058 6.1291
12.1213 3.3879 6.1293
12.5807 3.9069 6.1295
13.0590 4.4664 6.1297
13.5576 5.0705 6.1299
14.0783 5.7239 6.1302
14.6230 6.4319 6.1304
15.1940 7.2005 6.1306
15.7937 8.0368 6.1309
16.4248 8.9486 6.1312
17.0900 9.9450 6.1313
17.7924 11.0362 6.1312
18.5367 12.2351 6.1310
19.3275 13.5565 6.1308
20.1702 15.0174 6.1306
21.0711 16.6383 6.1305
