ply
format ascii 1.0
element vertex 224
property float32 x
property float32 y
property float32 z
end_header
-34.7248 17.4104 -13.2926
-35.3115 19.7278 -13.6696
-34.5344 17.7847 -12.4284
-35.6976 20.4397 -12.9832
-35.9613 19.0078 -12.1195
-35.4314 20.7794 -12.0573
-36.4783 19.7760 -11.4601
-35.9602 21.5892 -11.3957
-34.6960 19.2806 -10.1070
-34.8850 19.8596 -9.3636
-23.3662 13.6204 -5.7358
28.7443 15.8973 -5.7313
-36.9599 22.0493 -8.2219
28.8683 16.3536 -5.1030
-23.2461 14.1870 -4.6339
28.8742 16.7468 -4.4474
28.8801 17.1426 -3.7874
28.6326 18.2680 -4.3711
28.8861 17.5416 -3.1221
28.9056 18.8465 -3.7317
35.7966 25.0205 -5.3992
34.8015 26.0465 -6.0343
-38.0076 26.5644 -5.7345
28.8921 17.9441 -2.4510
28.9117 19.2584 -3.0454
32.1837 22.9600 -4.0713
31.2976 23.8879 -4.6457
30.3788 24.7885 -5.2027
29.4283 25.6612 -5.7419
-21.0959 15.0491 -2.6696
-20.6257 13.7383 -2.1736
28.8982 18.3507 -1.7731
32.5845 22.1690 -2.6505
30.4953 22.2002 -3.1086
28.6933 22.3294 -3.5362
28.9840 24.0961 -4.2132
29.0088 25.7549 -4.8863
29.0353 27.5280 -5.5928
-21.0016 17.4589 -3.0539
-20.5808 14.9818 -2.0989
-20.6368 14.0395 -1.6796
28.9043 18.7617 -1.0877
31.9235 22.1789 -1.8227
29.9021 22.2091 -2.3059
28.9674 22.9806 -2.8323
28.9908 24.5522 -3.4555
29.0715 26.2758 -4.1131
29.0426 28.0148 -4.7860
-20.4882 17.3504 -2.4430
-20.5054 16.2666 -2.0059
-20.5616 15.2708 -1.5866
-20.6202 14.3251 -1.1783
28.9105 19.1778 -0.3940
31.4407 22.3014 -1.0239
29.3250 22.2177 -1.5248
28.9741 23.4291 -2.0865
28.9977 25.0140 -2.6884
29.0786 26.7532 -3.3210
29.0499 28.5076 -3.9693
-20.5534 18.9087 -2.3483
-20.4964 17.6796 -1.9012
-20.4921 16.5695 -1.4767
-20.5423 15.5627 -1.0691
-20.6034 14.6135 -0.6720
32.7055 22.1672 0.3495
30.5753 22.1385 -0.2361
28.9583 22.3773 -0.7691
29.0334 23.9268 -1.3332
29.0047 25.4819 -1.9112
29.0302 27.1847 -2.5135
29.0574 29.0069 -3.1416
28.8180 30.6796 -3.7647
-21.0919 21.0541 -2.2814
-20.6026 19.2918 -1.7848
-20.5052 18.0136 -1.3521
-20.4905 16.8856 -0.9419
-20.5255 15.8600 -0.5462
-20.5859 14.9047 -0.1599
21.5171 14.8988 0.7603
30.0490 22.2069 0.5250
28.9650 22.8260 -0.0222
29.0403 24.3887 -0.5652
28.9376 25.8901 -1.1198
29.0375 27.6745 -1.7008
29.0650 29.5134 -2.3020
-21.4219 21.7512 -1.6977
-20.6626 19.6917 -1.2112
-20.5207 18.3586 -0.7951
-20.4889 17.2060 -0.3997
-20.5106 16.1625 -0.0167
-20.5664 15.1981 0.3583
22.0428 15.5903 1.3305
21.7526 16.4060 0.9364
28.9719 23.2818 0.7363
28.9914 24.8100 0.2144
29.0716 26.4864 -0.3225
29.0449 28.1719 -0.8754
29.0727 30.0279 -1.4492
-21.9027 22.6211 -1.0929
-20.7763 20.1506 -0.6272
-20.5395 18.7120 -0.2288
-20.4926 17.5359 0.1505
-20.4954 16.4691 0.5199
-20.5467 15.4955 0.8834
22.0478 15.9267 1.8915
22.0030 16.9343 1.5189
28.9788 23.7451 1.5075
29.0018 25.2889 1.0060
29.0263 26.9287 0.4923
28.9749 28.6011 -0.0361
29.0805 30.5509 -0.5822
-22.7101 23.8571 -0.4558
-20.9438 20.6724 -0.0271
-20.5764 19.0883 0.3480
-20.5016 17.8757 0.7101
-20.4910 16.7892 1.0649
-20.5286 15.7985 1.4161
21.9924 16.2245 2.4557
22.0688 17.3314 2.1070
28.8786 24.1272 2.2841
28.0262 24.9002 1.7504
27.1491 25.6471 1.2353
26.2481 26.3676 0.7390
-21.1907 21.2858 0.5955
-20.6274 19.4851 0.9375
-20.5136 18.2244 1.2802
-20.4893 17.1171 1.6195
-20.5132 16.1087 1.9574
22.1653 16.6989 3.0592
22.1814 17.7745 2.7152
21.5916 18.3926 2.3031
26.5017 23.9908 2.4048
25.6783 24.7009 1.9149
24.8318 25.3863 1.4427
23.9633 26.0466 0.9883
-5.9661 44.4875 -5.4059
-4.9333 18.1253 -1.9844
-5.6295 18.2884 -1.9222
-21.5796 22.0601 1.2527
-20.7222 19.9323 1.5443
-20.5328 18.5862 1.8621
-20.4905 17.4535 2.1846
-20.4976 16.4241 2.5080
22.1707 17.0567 3.6558
22.1868 18.1407 3.3252
27.0908 23.5294 3.6515
25.5346 23.5526 3.0536
24.3351 23.8373 2.5363
23.5366 24.4889 2.0862
22.7178 25.1181 1.6531
21.8785 25.7233 1.2371
22.2254 27.8132 0.8863
-5.8902 44.4864 -4.3847
-7.3860 44.5087 -4.2846
-22.1894 23.0858 1.9657
-20.8448 20.4170 2.1714
-20.5604 18.9633 2.4577
-20.4997 17.8035 2.7620
-20.4912 16.7531 3.0700
22.1761 17.4222 4.2652
22.0245 18.3747 3.9186
26.5780 23.5370 4.3456
25.0670 23.5596 3.7361
23.6397 23.5809 3.1795
22.3637 23.6826 2.6796
21.6585 24.3607 2.2733
22.2065 26.5481 1.9953
22.2324 28.2781 1.6549
-5.8146 44.4852 -3.3684
-7.2907 44.5073 -3.2645
-21.0818 21.0280 2.8343
-20.6129 19.3721 3.0711
-20.5103 18.1623 3.3524
-20.4895 17.0928 3.6444
22.1817 17.7961 4.8886
22.0302 18.7544 4.5513
26.0733 23.5446 5.0285
24.6062 23.5665 4.4083
23.2183 23.5872 3.8414
22.1209 23.8442 3.3557
22.2970 25.5147 3.0741
22.3213 27.1366 2.7658
22.1784 28.6747 2.4345
21.7417 29.9325 2.0738
-7.1959 44.5059 -2.2485
-8.6663 44.5278 -2.1155
-21.4316 21.7707 3.5446
-20.6940 19.8182 3.7063
-20.5302 18.5378 3.9583
-20.4902 17.4422 4.2319
22.1874 18.1790 5.5271
25.9717 22.5624 6.1278
25.5763 23.5520 5.7012
24.1518 23.5733 5.0714
22.8022 23.5934 4.4950
22.1125 24.2636 4.0761
22.3038 25.9686 3.8264
22.3283 27.6073 3.5451
22.3548 29.3828 3.2624
-8.5517 44.5261 -1.0982
-10.0181 44.5480 -0.9342
-7.2571 18.3196 0.1319
-21.9599 22.7205 4.3277
-20.8176 20.3175 4.3701
-20.5558 18.9276 4.5809
-20.4998 17.8075 4.8356
21.9981 18.4083 6.1275
23.0330 20.4209 6.1274
24.1508 22.6809 6.1273
23.7031 23.5800 5.7261
22.3909 23.5996 5.1411
22.2878 24.8985 4.8539
22.3108 26.4341 4.5980
22.3355 28.0901 4.3443
22.3623 29.8848 4.0924
-8.6858 45.8360 -0.0855
-9.8832 44.5460 0.0858
-11.3472 44.5679 0.2828
-30.4591 36.0858 6.2755
-28.8221 32.1960 6.2753
-23.0074 24.2477 5.2813
-21.0456 20.9348 5.0829
-20.6107 19.3550 5.2279
-20.5114 18.1839 5.4554
